X,Y,Z,R,G,B
49.65439173487225,96.97098054045892,366.63421529527824,137,89,105
-11.10636472758566,96.62024847243764,366.1040201229144,137,92,111
-166.49941334808696,121.2612167504974,488.487237937527,100,70,72
-183.5917648914269,122.7275229373072,494.46312802866805,119,83,97
-252.40228393542222,134.61084249221852,545.5947322557569,61,60,66
-230.41387544837568,133.29763415851025,547.3464482721296,47,43,57
52.3810927238288,94.55452097436647,366.61561916839634,145,97,115
-18.979927255712102,94.11821858121836,366.01326514609934,139,95,112
291.52147811558604,133.87807345821946,547.0082798510881,115,100,110
-266.3612233556168,135.858697674652,544.3321773235241,90,81,86
47.92497284547869,98.03668622485796,366.7617285516923,81,35,46
22.37004413226069,97.80280910018908,365.84995397187834,87,49,64
-9.94050060600035,97.68849477763412,366.18934374954216,100,50,61
52.81144287801393,97.55835961827663,366.51422431431047,90,44,55
-40.95370192070189,96.60454490218339,365.1834614310631,132,78,94
-78.41888069810578,96.5911274320399,365.5660405830814,127,78,93
-64.36633527576126,96.4062383978821,365.29285619420733,129,87,97
-67.62711816974763,96.21663557026018,365.51159733244185,127,83,99
107.5228259789278,-207.98598482798215,574.5195973701476,144,117,132
246.74746897735366,-209.4813686708428,573.9775763519106,107,76,94
237.03630687406775,-209.3504954219902,573.9439139710261,96,67,85
181.10765540575665,-210.0874216249057,574.4546155195595,92,67,89
204.36514628189624,-210.33026133958975,574.0240760578985,132,113,132
214.57192989475726,-210.71976553303773,574.4436914682392,86,65,84
298.0261072662969,-211.93676440362043,574.4298795764885,134,110,132
164.94683260040588,-210.84033451657032,574.21803940368,111,83,95
225.13232581039367,-206.76579616310516,573.6398882925167,133,109,125
185.99199492857332,-206.98838674227002,574.6055983802703,122,101,120
168.32125123724103,-207.3766209799671,574.8442199235529,127,109,120
-240.4916509515078,13.08559833172719,560.419572682136,111,95,107
213.0587697208738,-208.17778848919662,575.2552134001496,124,106,125
187.87484581228728,-208.4699952435841,574.262229244209,100,73,88
234.66201451541986,-215.2872264136533,574.1222285920059,134,115,134
24.12662908644827,35.91154866617029,511.62447369959887,105,60,69
200.4189931511398,-215.9680095440589,574.079085270502,137,116,135
-256.4178979597266,13.973968101881889,561.6924772586328,88,84,99
234.02663232478966,-217.89567724351326,574.969168704373,118,87,101
117.91908907215942,-216.52616947955246,573.6611946423976,101,74,93
182.09034099533937,-212.14604373425766,574.2668774200708,124,103,124
-71.19601639079427,-192.79945473629857,518.2134932155867,80,44,46
155.6875994970825,-212.67688873820174,574.5633443226384,113,85,99
298.2038535980275,-214.48996241118374,574.7730138824345,106,77,94
185.93669149804356,-194.15336059452872,573.5225006548617,76,58,70
-141.95034084679986,-190.65813447128411,570.351826199311,110,79,94
138.90697863497897,-194.06776389914464,573.117520637731,122,107,126
149.77915140074518,-194.5429917306453,572.8050049234764,133,116,132
241.8913260631709,12.692135113610819,562.9621164262504,130,102,114
57.7130047339385,-183.7795188110559,534.0680521067617,112,65,81
227.52938552726488,-196.7391469938595,573.7269029952569,144,124,138
207.60095310624243,-196.92589247105732,575.0969731800603,75,69,83
126.8636414735701,-196.1144809356146,572.8761994457498,131,107,121
122.9247397214991,-195.89266538757514,572.9508145268367,136,108,122
180.5325937454328,-196.8966458721148,573.2557907529981,134,114,126
-138.2770325307923,-187.61589347041448,570.1734292162542,98,68,82
-115.913369796288,-188.45699466250986,571.2244420835497,97,83,102
152.80413231358148,19.769309196855687,525.1831963195975,84,56,70
184.88339038916536,-192.16604896924522,573.5375930525976,130,120,145
-80.64644737488304,-179.09358135110458,532.7855392076934,56,29,36
-243.85090100957623,12.74150795595523,561.2566504216576,107,91,109
113.85039766540889,-193.13235879286069,573.6910221324879,99,72,81
234.0903624695156,-194.69224767054024,574.6876195426546,80,55,69
-160.52308837539647,-190.94667034779005,572.4398621948643,135,111,124
-225.89993677185757,-140.979529379513,567.2146389884207,97,73,89
116.66441824591199,-203.3522167699284,573.7355903678624,139,121,143
255.4634342042732,-203.14677552552237,573.6374571025032,130,120,144
186.22868810867902,-202.58951516013246,573.0907877495337,139,124,142
129.3039740509432,-202.97261946826404,573.8535972539805,134,120,137
296.25255074969607,12.67384443356957,564.1239499172909,107,81,94
133.79614981578888,-203.09277080828764,573.517332654345,128,114,139
189.18866984175344,-205.04665338004665,574.6886624823131,101,74,92
-24.15203287424664,12.1470203742791,523.2115919542305,58,27,33
134.17053356145018,-205.95990812292482,574.2619527630134,93,71,85
257.281870714979,-200.48865348159035,574.3756375350953,108,89,108
169.48074162545743,-197.32840689481503,574.1896988556729,90,77,95
116.33981848323376,-196.8919409904927,572.8763293726009,139,108,123
180.64887254246256,-217.71512856293324,574.15522669832,122,105,131
136.72945392415875,-198.87218677678732,572.9877395733406,115,89,105
176.93829775928594,-199.50821183085864,573.189814148473,108,87,99
174.19708762889198,-200.2996173176267,573.6909800015521,139,115,131
30.330384809916072,-184.65178581015843,521.9493162501236,115,70,82
240.3348655585484,-203.18598275630043,574.8389682964201,130,116,141
311.05214272378447,-234.54978204206586,576.3049315246946,110,99,131
300.6558291512546,-234.03904885463737,575.5664885586433,106,90,115
252.39907701184654,14.560714905134962,563.2356530642876,106,80,94
-206.77089342862342,14.81769948794639,560.3415086704426,55,43,52
242.86130937022392,-234.9126373901607,575.4810085504985,83,61,80
-160.1659127730614,43.68254193382375,500.93691895629775,51,29,36
303.49176073784776,14.36481579091336,563.8747107843602,99,71,86
285.5983962672287,-232.47290779611083,575.2441734471138,116,104,128
283.2747430432212,-233.07236013828648,575.9122084850992,83,71,96
9.49555968337862,13.42326141345177,524.0883587901172,61,28,35
241.7628991735727,-232.8213052851388,575.6308073205229,126,112,129
128.28070925023417,-231.6873838389832,575.368969641712,134,113,128
208.04255235321304,-232.52461456591803,575.3229788850849,125,107,123
129.07393888813763,-236.13663769532621,574.9808734599521,142,121,136
235.10328706163702,-238.23516159984018,576.2647603155922,120,104,130
150.90560505629756,-234.69512279214038,575.5895107635909,112,84,102
112.03791091737922,-234.6536820006687,576.1895360842776,117,83,100
-215.70468797262726,-116.67720700067224,566.4295464379533,123,106,124
18.89633853218912,14.06913627656354,527.0671796091341,83,51,66
209.25389629639676,15.110754369661311,563.1872826019058,96,68,76
171.7835050333223,-235.35306240069218,575.6145095462668,103,76,94
244.8112612408119,-235.78303721945707,574.6429239112288,120,103,126
189.31430164038736,-235.5463386598272,575.3878882694261,133,118,139
239.14604791635304,-211.80147619555655,574.8607207122681,134,115,134
-268.3628224019936,42.83393387128318,558.5551053433488,70,57,74
234.9033294784481,-224.29610837863393,575.1906053747816,100,72,90
211.91847453095082,-224.1273519853034,575.1942312059455,123,110,136
179.67882129977292,-224.73442561829046,575.5222847194656,128,111,127
142.75210897525318,-223.9628973871679,574.9430959272875,133,118,137
146.79291083017029,-220.0211497082277,574.4858143174913,133,108,127
6.56781934203598,-198.8150683535948,510.13871094372297,89,59,67
141.59502024133934,-221.52444642105124,575.5744827572936,110,83,104
147.7364184122799,-222.2326981687072,574.3509624315035,107,74,92
190.67453026000828,-230.20100919056628,575.637557874765,145,120,136
143.28425399977445,-229.3686071762929,575.6671336689838,134,109,130
252.28671213830464,-230.7105630436018,575.7858753454495,56,39,55
98.31553853185676,13.84333173711281,543.0356378328861,83,47,63
191.12078344884404,14.489749316194999,564.0284441620003,99,75,97
297.35015536935674,-232.32829663035125,576.1195849165908,120,104,128
139.96549992546034,43.26128485247928,503.33389665071354,52,29,39
219.93347407856464,-231.52717378592928,576.4910627286852,88,71,90
152.23121792082776,-230.53763634497568,575.6825111954975,103,75,88
215.69464738749485,-227.3347978076207,575.9571416484089,121,122,147
185.3698650376548,-225.40221203179644,576.3528324043849,123,112,136
166.43607520336838,-224.53092484002704,574.3583000108345,133,118,137
181.52104908820513,-225.66105822904404,575.1486932440614,87,62,83
192.43187045111824,-225.96846377292482,574.4776619467244,138,120,146
122.11125254486232,-225.10118999366986,574.1644035801977,107,81,102
143.66857828284975,-226.29920903889982,574.4122692665666,99,68,86
212.54126533912842,-227.9435884174303,576.5004358164261,126,117,143
239.12430551027458,-229.5186169421765,577.1020809317992,123,112,142
210.7499366289992,-228.847988609376,577.516173203912,117,109,136
189.51640262867545,-228.27314163184357,576.2231775863895,80,58,71
133.8849203662975,45.941607434156936,503.0407536815119,139,95,110
296.17323445064886,50.87131073201638,559.3493772736074,59,41,52
-229.04049510192496,49.771228066900456,559.3659517137585,97,80,90
246.6912509056737,50.793509740225154,564.0811074029167,64,43,53
80.89990872094644,45.64175083731446,503.50123661652805,54,37,43
55.278765952067786,44.98983428260896,503.60023805697534,94,70,79
114.16713159395545,44.92496729995559,503.40116192767726,87,61,70
98.4146155332459,44.65036835916652,503.4246886449984,68,38,48
-120.96932429688847,43.85197326130785,501.8572418518859,50,24,29
-318.75068716441655,47.83395424669205,557.487099198025,122,112,136
273.00657327407157,48.60197546256113,563.2350839477822,98,75,91
-147.28942178112655,47.47002356930311,500.6582063098476,100,63,71
-243.423234353726,53.6618185057086,558.595682101278,40,30,37
270.5865621213856,-247.83205707211184,576.3097940234582,109,90,118
-267.0978014252926,52.50753117274004,558.1666099685202,104,85,95
-143.70025517746953,47.290335349803655,501.64860442660586,132,91,99
261.22167272413293,48.63710778681052,563.207794848858,106,80,91
-235.4949639907876,51.839849215600275,558.2811545562076,102,80,88
133.32391468823917,47.51442741489339,504.01523196422653,52,30,35
228.88124828000122,52.568283454335294,563.4789725931549,131,120,137
108.77182001605152,46.58532884563474,503.56021262156014,100,70,78
-18.14668976759679,38.65844309858413,502.49879822111814,55,54,93
108.97450351176603,40.96046141169469,503.5604401711721,52,31,36
-315.87866052998083,44.37323481962892,557.6116307372373,80,75,105
-142.32534182068588,39.96151678376928,501.0882642117341,129,85,95
-233.05239447737947,43.30743691859955,559.9552304876303,97,84,101
111.145800962969,39.51531237086569,503.1011567067244,137,92,106
-278.53948214957813,42.40776053315796,558.9040053662117,94,86,105
-9.1722520561513,38.50484107221285,502.4793470471003,121,85,110
-21.88370194871479,38.68617134414579,502.4555750791102,106,68,86
272.7435693670611,42.89176797722311,562.9988046347116,92,66,86
71.39132204562583,38.36964744939806,503.4430810504561,129,82,98
-219.36041717598806,41.811341852337655,560.1115898868211,96,91,111
-270.6941231085958,41.80804412634442,558.6923767678552,98,89,109
-274.5293427765631,41.62339295519057,558.6712098007989,113,101,118
-259.45633165646336,41.05250144500255,559.8696651931117,105,101,124
285.972488890602,47.21252130742723,562.463765318804,98,72,81
258.08105257490945,46.66939496436073,562.4809386873859,134,107,116
-148.70324754265002,41.57582742597933,502.32212825309716,54,32,34
-260.9584221010436,54.56692307802808,559.6640126836733,43,37,47
-280.4893541989996,45.16608228938677,557.6387792517362,109,95,117
298.6444143295796,46.03243196840906,562.3651489128716,103,77,93
-41.00068424172189,40.84447078845751,499.0289599370091,66,38,52
-309.92471053200205,45.0455655154201,557.8412973231832,109,104,129
292.6506988091032,45.88529694829282,563.0658641411912,134,112,125
296.669184581472,61.919412720790866,561.2648051893107,105,82,97
73.19897783888695,56.74967446566544,503.4360287017648,103,72,88
-33.57275543224269,56.095680585058204,501.65531847618655,133,82,91
-186.24311029165034,55.84308059364502,499.9633461239064,38,26,25
-302.82559607727654,61.55411256059525,557.2332125627544,82,71,87
254.81298038535894,62.16073036482417,561.2780357697965,134,116,130
140.4842986439433,56.55684015154434,503.3685097644966,111,77,99
-145.0438473599553,55.80252035556313,500.7103300489286,51,31,32
-237.61073227192594,62.14241035305014,558.4023993764558,42,31,40
-45.340876924110304,55.4321783096122,501.94013865628654,76,44,55
104.71072072412879,55.378305120409046,502.9519000130184,70,36,43
55.16679047469355,55.222807143835176,502.6101181375311,65,34,44
155.24689406264199,55.07748553912579,503.195355611055,76,34,46
10.69090968957939,60.685839918346474,502.2505850923257,144,106,124
-132.84126181330709,59.677565397896345,500.96654512025725,60,33,40
-109.19601934398848,94.0539199971095,385.94114660215456,75,41,42
281.96143934501066,66.38305025170322,561.494081678105,138,120,137
275.0355588238772,66.28161966312307,561.3378021616031,138,120,136
264.0769054637921,66.22154816133467,561.3011492921383,140,121,135
66.6733676806922,59.274913131440584,502.8289390407294,59,34,37
-233.50864307958227,59.67197384110779,557.8988487008353,41,29,38
242.0794950793192,65.26245013071456,562.7621958039738,128,117,134
112.73674502995863,59.0697881685798,503.3955019483523,99,68,79
-136.43450027117635,58.14977087118927,501.58681014059175,108,72,86
244.72876675793566,63.92619508398148,560.4135215385619,125,105,115
-241.22955868982112,62.84297339029506,557.5879265257964,75,60,79
-191.68575859997307,56.77749130175121,500.0362231099776,64,50,57
-280.33577334039416,62.553453692150015,557.1693819379911,111,102,119
70.78553862013362,51.09436864207129,503.01144557220033,138,93,110
-179.18695678155458,51.44102456534855,500.0547853516804,123,76,86
-265.7913771918391,56.227242667813215,559.2455518271674,104,95,112
276.6692488685135,57.063842392482556,562.0017748813395,109,85,101
244.7066482795699,58.65379178416193,561.3897228597453,127,109,123
260.2628958550981,56.394927248137925,562.1393330395313,91,66,75
-282.4048822411905,55.216512874987345,558.2596774115111,43,33,42
-279.21175923221944,54.79644582986495,559.3113144385733,95,92,113
-16.493043400715308,97.26903686109192,366.5189659579128,95,47,61
-309.8139163881246,54.58730465304959,557.9017741714166,118,101,125
34.41892725419377,53.67733951673047,503.1850682338556,143,105,122
-189.0614119030681,53.62086353278796,500.0514688069872,33,24,22
-15.174519651869458,53.87629590330461,503.0196726736257,149,110,126
-224.6419908872649,58.79322124500837,558.4523684717619,72,62,73
-102.3997348030233,53.37780472887652,501.7522751861703,85,42,56
9.75168314895693,53.473492349324744,501.91002837471564,78,46,59
0.30881512742815004,53.060293947465865,501.8098814295802,137,89,103
259.0527596468239,59.287215407746466,562.1548115710605,133,112,126
62.45300734946595,53.376543500408744,502.7155618318008,138,88,99
55.94815940018886,53.42350359771814,502.69117817441077,137,95,106
-234.8127157256163,25.99985044326964,559.3104375065449,106,87,98
256.4308457478172,24.25937716475908,564.0696264444313,92,65,70
-229.76927308909404,23.97092220609875,559.8633760048002,64,51,61
-315.33435982997497,22.74238279887698,559.0108086012332,88,78,102
130.4176053679974,26.39766465251732,520.5863848649585,161,112,126
-79.40526467357336,21.49414546954408,444.9869417530654,72,30,40
262.36918834339036,27.59936834558622,563.8751428415217,62,46,56
224.54117317432392,27.129410528049082,563.6443979710937,51,37,54
-227.13879588812063,25.983193106117458,559.7869662486446,43,33,39
188.06344233167835,16.71986485906164,564.5041634760256,100,78,97
185.73820698886936,18.466682804171562,563.8025036039463,132,118,133
-166.7652113247613,16.65692293384009,525.8338024684505,147,100,116
-298.2715562079621,17.87879988716351,559.1448068005514,108,98,123
-303.54867030832895,18.02843980413612,559.2575434272086,119,104,123
134.69378715730537,16.28262162064924,528.6458077665209,145,101,118
235.3242437145405,16.548517997309638,563.0771025383594,129,107,118
-23.72246660277088,16.98116936608974,523.3513994798392,66,35,40
-201.44815309308038,16.57605010552713,560.3067761584069,56,39,49
221.21750990346217,16.320334969394988,563.9168394515158,135,117,134
39.61726318579688,14.806673785983671,527.4031206777233,85,47,65
254.92326462758558,20.90222196237718,563.7704666191532,103,77,92
297.2353491217274,22.660910577155942,563.4513433151799,155,125,135
279.2037599620744,22.76938399942819,563.2627397543648,147,120,135
302.923824851388,22.23580607211314,563.2037104294861,147,118,130
-256.00789105576325,22.12186024032003,560.1355921481731,86,69,87
275.0511421850764,21.76724363243345,563.3033389467197,120,93,107
270.19296936750345,21.598579935076028,563.539189606824,105,75,83
-225.97795701419784,21.27752468688672,559.8796771676999,92,76,86
-303.7194686021912,21.0704911522119,559.0912007205565,127,111,132
-277.47011059149884,20.71441788926164,559.484842720758,108,88,99
233.10431518112722,20.72307356603512,563.4358294183301,130,109,124
-252.60893327721394,20.13145403077291,559.7739508609441,103,82,92
260.1076018835271,18.82192427190781,563.7603824720968,129,112,122
36.05367908529151,17.62892337111809,526.6668857416163,124,64,74
304.3685873056031,18.46958920277895,563.9419252419501,104,80,94
290.0242467194221,18.52742063739729,564.1168045364099,133,109,123
115.95967305435957,36.62598292687425,529.4614069359671,93,53,61
231.27706464286985,38.06825719648252,562.2023475484526,115,87,101
-246.86334694859391,35.59643656045968,559.2840579756942,95,79,98
-253.6793272684452,38.28673265056547,559.0601916298712,95,79,88
228.26689094720373,34.17446038961321,563.0061868256074,139,123,138
268.5877190564339,34.00389011967409,563.0319168554466,103,77,89
237.27848143190346,40.09251116008559,562.4038885142614,115,88,98
-85.05177557484856,37.43125566430748,513.7682381893377,155,107,125
271.00085309750494,40.91033775831437,563.4937919263864,132,111,130
239.45164861590501,-249.64578634329837,576.5006104642213,73,59,84
206.7712450568557,15.635284352526929,563.3768160958249,90,66,79
254.12515676608533,40.582907497277645,562.6333760836312,129,107,122
-225.596409372046,38.51540083835065,559.1191502722337,93,87,99
11.38799517418329,28.252831329705753,514.3510416119631,137,82,96
-165.25380893843618,28.29763580158118,516.5166534602308,131,70,81
-169.98948152972616,28.41285245946437,517.2381925615734,132,74,88
-186.44917471799369,28.3399145655251,516.8892857500242,128,72,87
221.3326585736924,30.66639349298707,561.066025160488,30,73,178
3.03064777533736,28.18013755890341,515.4416733923919,133,77,88
-224.9342921442937,30.19230505003687,560.0451362804235,81,64,77
156.44727628357228,28.1154889591054,520.197594024197,133,80,96
-244.68872449767528,29.58538860562908,559.890289464619,61,50,57
262.1632664845974,29.54467857178501,564.6740381359049,129,115,133
-244.5302648016691,31.8144874349459,559.9650683653609,117,109,128
262.81568183250084,33.54707121252149,563.5917356870738,136,112,126
-225.52379120611454,32.28172412136224,561.2880993219804,35,29,41
241.5958640342323,32.56505045208349,562.8902255043181,131,109,121
278.57440100149057,32.33606264471777,562.6590348338261,103,74,79
275.0558267900121,32.07969928759821,562.8953305818645,136,114,120
-254.88924263215972,31.165232684995768,560.6712066463473,113,109,131
-265.0170670057874,31.152050808094874,561.5108529312369,105,96,117
-218.68114884084164,30.89476876388079,560.9080953955353,96,88,103
-169.07005642992968,95.54344290283116,496.67219253648574,90,58,62
-169.5896697985667,92.59483733313631,496.8844660846262,94,61,70
243.7518801062649,107.1753167779072,559.345751807808,99,81,101
-255.8661229383527,104.10496555019273,557.0375308178444,52,44,59
306.0708920950499,106.56068264250732,559.2015335978684,94,64,74
-229.0809974048821,104.17003442478168,556.3086749466829,72,48,53
298.2370595314032,111.48479496222583,559.4144226549867,118,97,109
297.0216836794445,106.07911984788618,559.9211037771613,96,74,89
-164.4957312041787,97.54735161261856,496.8628586900478,80,51,53
-282.7961952531957,106.94474495937172,556.009415695178,66,55,69
-310.6121742453132,106.37752116622583,555.4845891349245,104,90,107
276.3003964320962,109.19036894116934,559.4110106270512,150,130,149
-167.5209471364979,96.88017477458511,497.0720036783288,27,15,19
265.3927271290052,98.31695990617466,559.6399560665168,133,112,127
280.3306244220348,98.02942148349382,560.0505352126339,125,107,126
-162.0255293085597,86.92863966166617,496.7065258437532,31,21,19
295.08647339187684,96.03955015191798,560.2443509954486,96,69,79
-313.3330474081821,93.9402556487442,558.0638828470741,108,103,125
-284.6189026362949,100.46601668823116,555.5351270142676,73,65,88
-251.51470900730243,103.23134898019516,556.5668622994616,89,77,87
257.7565491677326,105.39003454003779,559.3374875259085,128,109,126
-254.89752677147735,101.45277118234671,558.1397384142253,95,83,102
-278.66628047961166,100.1091164271289,555.7848225238672,71,60,80
-233.12081540854172,100.06341028246773,556.0660614120477,55,38,41
250.55222054068088,101.6371760295628,559.7126432522052,122,106,125
254.8872875992414,100.92403191217501,559.592663627127,139,126,142
-300.7894730234147,97.34163946439722,555.5663540475732,120,98,110
-284.0491263506995,97.20472044397924,555.7437907649703,77,68,89
-60.57622386881783,81.5745584660149,366.26026223492374,120,77,87
301.0858459156801,119.8121272855473,558.2686911503292,118,109,136
-175.42862337139834,106.33253247700299,496.3887378796836,40,25,30
-167.45802671662616,106.03726937657538,496.26869458193676,31,25,27
24.38267003933738,82.56625983930999,367.0847897969713,93,46,54
-53.34837928255515,82.13522222676136,366.7989979534456,68,30,41
-272.7688846961079,115.95645111020734,555.5171153634507,85,65,74
-251.3159564401658,116.62453792581606,554.7634804121788,72,61,69
-37.207965558982245,81.4100488612599,366.4805831371948,118,74,87
290.68840340116907,117.29396771465534,559.3468023574902,114,107,138
241.11157547007903,116.88887096925357,559.4184245255176,93,82,122
-120.37601938532414,88.87635732066154,397.74881989864406,99,61,65
-228.24784818201493,119.16232024108695,555.7406671278121,34,29,33
-314.4433441182839,117.88561898345542,554.3691043733471,103,92,109
33.242756310402584,80.90368901098621,367.2894062526009,77,46,62
9.77729513098188,83.63008883172402,366.4208673823817,127,81,96
30.666285933456678,83.30528191023551,367.1644604962555,82,45,58
-264.7884501951005,117.17730856376174,554.7261838450695,69,61,84
-251.14441331181087,111.23494447873914,555.6822879643566,53,43,51
-299.80626509193684,111.6917881421444,555.1965021560637,96,85,102
275.0443710114138,114.53201640330104,560.9660396966901,44,34,46
-107.50659539939045,81.82587415747139,385.4041975493598,58,31,37
-239.66967349600674,111.4556459860063,556.2658395434214,48,37,41
-267.2324910448052,112.17946688676285,557.1562223797446,53,45,56
-272.54529267703396,111.2121878459662,556.4287861637765,49,41,48
-118.38742941933064,82.38568989583182,395.2186617810959,57,31,34
-279.7701376264655,110.14653718558962,555.8354061795592,53,42,51
-284.4709651667108,110.23274579736476,556.4555404525173,48,43,53
-286.26498908530544,96.01339967622292,555.6707662632833,114,100,115
261.9797632871013,116.23861923702783,559.4719668510215,125,111,125
5.83298423412534,80.90576278738733,366.91993855384294,78,42,54
-35.06208775034309,80.62935200429041,366.5275240031172,68,36,51
-48.559066494113566,80.64077849974323,366.53120110538737,121,77,90
124.41239428750433,-239.71244532709105,575.6329717541537,148,128,145
-236.49278625629546,114.15555530940892,556.4036752210234,91,89,107
273.04159014304315,116.43256730037257,559.2027162512622,126,111,130
-251.5935591110031,113.30814024643155,556.2420056892961,95,92,113
208.60674069757766,-240.80868638229202,575.5406540203164,126,116,141
297.5956744302932,73.87604699613142,560.7703487138258,104,74,82
91.816518271752,44.7797498677302,311.0687061227637,122,68,82
-17.42175388607911,65.27235720438584,492.86024465562923,141,107,125
286.6930713381333,74.17909286439591,561.7391837080063,139,117,125
-255.3450002485591,71.41748383643825,557.5208887997431,98,88,109
-301.46043975604783,71.42672443741222,556.819935833256,112,108,133
-71.03092200289241,66.98348528328181,492.4845779929991,97,60,68
-37.47720779721619,82.86492707252269,366.7959310757879,74,41,53
-275.73727018444293,74.5824021714973,556.4307027137608,115,104,125
-63.947889450905684,67.15503216445067,492.39986433088194,90,58,66
258.7598243152758,75.98236597347989,561.2072060140143,133,116,126
300.73790566759163,121.6998301193076,557.9826708486985,76,66,90
262.42132328705827,69.18976810776147,562.8057719373572,67,51,66
-251.33073878793599,69.34918253529013,558.9488936076801,49,38,52
289.8922029404793,70.50350862588645,560.8197871535152,145,119,130
-246.87616881809032,68.36497287897839,558.8191670546561,43,33,44
-192.83109796937742,61.606782602219965,499.3961678223319,72,52,54
-254.69227298678666,69.54680043079745,557.6121217235866,50,39,47
289.12099773193984,69.07397766556697,562.6043964564631,73,54,68
-305.3057246806361,67.11276859740914,556.1059603479014,98,75,88
227.06056764007081,68.01588159732374,561.1905445454578,142,120,132
-245.7281733241361,66.4268789540275,558.025921651809,92,81,97
-23.90274126643852,63.69626895042882,494.00965523192974,102,69,76
236.00356108586257,71.98788736523326,561.7980444803778,132,115,131
-188.88875580875435,67.16334366095684,490.771926500957,88,46,53
-40.96138377280615,64.51053976799967,501.08346330889805,97,65,75
262.7044532445855,71.39439056600928,561.8468486489596,134,123,139
-281.4756990961934,87.64616414508419,555.598520997163,113,103,125
275.88643652446416,89.18524744006035,560.4126824635453,135,125,144
-58.89121368510406,60.11149166424234,360.73519758239485,107,55,68
290.18074155668086,88.74437489884616,561.6066873536673,114,101,126
-316.84766473628764,85.89045379860443,555.9398559571227,88,78,103
275.3960017277576,87.34806725417374,562.244902780974,66,46,55
-243.39589051634388,90.54777594964901,558.5529944816465,35,29,33
-315.9408187112755,91.36748642786982,556.2229638977018,111,96,115
258.1427976579088,93.93052949617248,560.2789719668681,99,78,93
-257.5209128191854,91.52258244212933,558.1870474312404,47,41,52
268.38386367100713,92.64104739489866,559.4947627805135,137,115,130
-268.71153793504715,90.174522865806,556.977327723837,114,103,119
269.8077720164064,90.90292331587789,559.7905630214874,110,86,102
-257.2518440502201,89.27687980877685,557.7467786125236,108,97,113
288.039649647165,82.0577081899743,561.8632331957073,124,108,125
-292.9536057452056,79.46172427994533,556.5900297097669,69,62,84
290.850040610148,80.27815178471303,560.6069079952014,124,101,110
283.15641088886326,79.91066646326622,561.1548945241049,134,110,123
-62.37419348092605,80.6990185661254,366.2137991698641,58,35,45
250.579678560186,79.28777755790293,562.1316554852856,80,63,81
-235.1596873489988,76.2791985741399,557.720831332161,58,49,63
17.473131493693252,68.95602618115899,492.78360388551397,95,66,68
-290.7421965658324,76.10275329542982,556.2678446153221,78,65,91
286.2295933402072,77.69434800209905,561.2307170174402,132,111,116
228.97407489324627,-243.9828023065453,575.6589219512728,121,111,135
288.011271860444,87.35303142458923,562.2169784409376,85,67,85
262.422368134637,87.12836615253501,562.0791552765693,67,51,61
247.5394977562642,85.1619421995922,561.7149560309131,137,121,132
285.9281878812731,84.74874651161193,561.6962996112329,130,107,118
-314.15939191665626,82.6796399416263,556.2436234361788,116,110,133
-309.64187315987516,20.12229819738595,558.2614227265617,100,86,101
-307.9091486752185,81.46323192098363,556.8626786465088,88,79,108
-318.69439041563874,80.95334355146419,556.3287733882368,76,73,100
-291.736006340299,-59.872063039697565,563.1892528761745,118,103,122
-283.42458023834917,-60.231847716578336,563.1089314202341,125,107,133
105.92912948459336,-59.44936560592728,540.6352637897265,81,38,47
-37.56317935777667,-58.73076313251864,528.1012655253844,92,49,58
-51.14391139034815,-58.210710941722155,529.054723037053,49,22,27
229.30671879574777,-63.46765014663986,568.3124624394943,119,108,124
-271.02842034669686,-61.49136029258165,563.5294960181634,109,89,106
-135.17958577412932,-60.38099353659572,540.8065005750426,126,72,85
208.92652179670029,-216.84091976416283,573.5960278945624,104,81,101
-239.99714222141222,-57.40844883124099,563.2985575604149,125,102,121
-272.88409046752497,-57.11656536025226,563.4777761571996,127,110,128
229.37878168473623,-59.416579495507136,568.6241552593837,64,47,57
-65.67199636486933,1.00258486873446,526.9849748871528,50,22,31
263.9710454961133,-59.63544221699539,568.4855092060675,67,44,51
141.7519891826334,-215.8368038603704,574.7194070603038,121,89,109
-219.30290434842408,-62.04682835144194,563.9826776288313,118,94,107
-253.6829249583014,-58.57002037384632,565.058804417661,49,33,43
10.225642843659049,0.9032421408587901,517.4912117687812,36,15,14
-114.58282506996913,-57.47888822265583,543.5438255771213,109,59,65
211.4680886247193,-60.800559126816175,572.61672980015,72,48,60
-141.68919839818298,-57.0347842941294,535.5651924722888,87,37,46
-245.98814982929426,-106.84301960918117,565.9348413541649,116,95,112
-241.7684418338004,-59.54496328902823,565.3259644332096,57,44,57
32.65429887086044,-63.395748495513494,527.3509717786735,57,23,25
-294.7183812416599,-65.49306398190198,563.4291211968659,122,105,124
-297.12915429038895,-65.51315271191527,563.8519067714171,124,107,123
209.79475912123266,1.94390098294983,564.7212365693712,133,113,125
204.89262463075875,1.7361438854541702,565.1046209792024,123,99,118
-287.8936905834297,-65.89132415461849,563.0356010244215,118,100,122
272.93399804517526,-68.48058159885676,568.0170653207126,132,111,126
-35.161400581143894,-64.11001041352283,529.27051284431,95,51,57
34.55266512886821,-64.92875808597452,527.6010462949098,118,82,96
-140.77862279631915,-65.73713996094158,537.28957996825,125,69,82
243.71730482567315,1.90522385669593,564.303892635688,142,121,131
-320.83423535146767,-63.52406300742777,563.7050822129064,38,35,49
-307.2561949192272,-62.03777332628082,562.784987537828,91,76,97
199.68674576222526,-64.47018850119807,567.8996260287267,118,93,114
-228.6669470912075,-63.12670078054216,564.3450072676821,40,28,40
284.0477958566055,1.41599660916303,564.4828121158281,104,81,94
240.76356312139328,-66.24598128649313,568.3220731690039,81,64,83
215.45130103400066,-66.25465589338945,568.3018234393792,115,97,117
46.19518422134829,45.71584394842465,503.68118112554674,112,83,103
-109.05335518497614,-48.98195190100768,543.586739055541,129,77,89
227.37068232337086,-50.78806399223774,567.1339507786624,132,118,136
106.31927617107415,-49.37057239990649,540.0886230752351,73,33,41
-228.26111872325998,-50.24472306336582,563.5186800874283,109,94,115
-230.22239387230763,1.11620366461756,560.919039485972,70,54,64
-32.23397669996809,-48.52526428581724,528.3069415993568,142,126,95
-139.30775532035605,-49.23374889030491,538.344414170204,92,45,51
-300.38443935122655,-50.78554605288241,562.9102428018813,78,64,81
144.6766534909951,-48.79292662769632,515.8546026740461,143,93,104
-251.88273487557888,-51.28225786323416,563.7743028056789,110,92,108
24.1994692691702,0.5238310649693401,527.2025762445328,53,22,30
-141.13574573790896,-43.82640135407374,536.1924456406852,121,65,78
-282.99260037263775,-45.30496845470608,562.9326235860736,119,107,129
-227.4546894695348,-45.99872954639895,563.9037450016708,132,115,131
-112.5191013076638,-45.50120570844207,543.4585743060469,123,67,80
70.94209003207375,-46.57577196888972,544.2824825685491,135,84,97
232.70995222859617,-52.89169136935528,567.2211924097292,136,118,134
113.67983279500417,-46.07904817808296,532.8436019531075,73,31,35
39.331291309683095,-45.98320632953647,529.3111415280251,89,56,70
-30.77514386173131,-46.13738315167936,526.5969583960114,128,107,80
32.34953204093553,0.38579180384497996,527.3848777567908,48,25,31
278.1556603890996,-57.139713866604204,567.7999358599292,109,96,114
142.05155056155812,-217.96897619572525,574.8122386204193,137,115,133
-71.01534221497568,1.0143718870606702,527.029541924917,51,24,31
-57.5736654424493,0.93150609824803,527.0069028802249,47,20,29
-134.9776362917298,-55.06607387517555,540.4931092589377,131,78,88
203.40542258033264,-58.40111860553476,566.9291251021501,120,103,122
79.6490471953021,-56.461380358628574,545.2030680660224,61,28,38
70.96241349184027,-56.06946351855141,545.0849044420656,61,31,39
-52.3044633082783,0.82001842981449,527.1358670564398,47,21,27
-57.95684929354516,-49.713656419684185,529.4936197578081,65,36,46
-240.07792672408078,-51.70923780865492,563.2267205631672,113,97,114
-242.47767258147866,-51.83498682571353,562.894980037786,117,99,115
-286.43935360849645,-52.20639419791152,562.8056041018583,109,85,102
-6.05399417716558,-51.321674693555984,531.5542112204304,207,201,169
-287.28956601876837,-68.45030374681303,563.2993057375353,91,74,90
207.27268872206207,-55.47156246539209,567.0449089370641,113,87,101
71.47184513673996,-53.69946443873387,545.1631210800978,83,51,62
-319.05746569907757,-85.09521639317947,563.9174290110193,95,73,91
-177.40473730893305,-86.42352447846979,565.734952077203,130,99,115
241.15789723855033,-88.3199467769528,568.7941788162722,99,68,84
-303.8540078244437,-207.46265911585277,569.7060533140008,128,102,124
-147.27931367623742,-204.3407096760232,572.245243572091,79,58,69
-305.72576348672004,-187.58382583600928,569.2563284233596,88,75,85
60.55858887043368,-202.11963157624817,519.9486688515989,109,64,72
-303.38455613960684,-193.44430941351808,569.7623646172242,58,42,53
-292.8014266228334,-195.45068011845862,568.0936397864083,127,103,116
-183.70337965128135,-205.42702274229958,571.1543584223459,139,116,132
-213.17693293783248,-203.6352423262123,572.4229338941209,98,81,97
-93.69550867436236,-197.84804727057735,520.3573067129776,40,21,23
53.57148823914565,-206.19291974231743,509.9271062046304,66,31,34
138.7626561406223,-151.80891060738696,572.7945275272177,140,132,156
12.18825528913369,-139.05776426229204,532.0079608712985,58,34,41
93.84526932363656,-144.25688699162018,528.0690221316083,121,77,94
37.11880077083435,-140.7679772300122,521.2774912589791,138,84,100
-85.03937566998397,-138.7922005396576,544.095975140764,84,46,53
-90.24432076563228,-138.01085609762046,542.5252543610286,61,30,35
-325.5790777380983,-125.10518377980225,566.5718959796042,66,57,62
135.54245676712227,-160.21341536023738,571.6559210924278,146,124,145
-54.45449561153389,-140.5759602261218,519.4393490567542,135,86,108
89.74688939903339,-150.8064685668694,523.6793349862957,65,28,29
-208.90536443954844,-124.35326138807004,568.8249898607065,118,104,120
5.39052440108303,-125.73653136495525,531.5477612277108,120,84,98
-148.84040870258107,-125.07139776832427,568.5491596416051,60,45,53
-234.5683140664802,-121.37379961024133,566.8971500569495,120,103,123
-213.62707914056617,-123.4353792031968,567.1162742480518,120,101,121
-204.40923867804162,-128.8983053299002,567.6413535931159,119,98,113
34.43439918622868,-160.49317751022258,517.0431925777361,133,85,102
96.71044456999972,-180.57418438181864,572.6103023970245,119,86,102
-148.75633189058598,-164.4446418004558,569.2016157040553,90,64,75
-307.77861174195965,-156.37847427054137,567.8149136949934,67,56,72
-146.576334255441,-167.5325240502913,569.742303115564,137,119,138
203.4843366166901,-193.75662839217455,577.8557801542545,144,119,141
38.719457307893315,-170.324030226863,519.6562430466257,124,76,90
-58.6006376325263,-143.9885538467973,519.7995198463292,80,34,37
138.29399068808902,-168.99512437783085,572.5224843922744,92,70,83
57.13449395958183,-158.93027404058927,533.598644125086,41,24,28
154.29653518724325,-175.14003437463376,572.1885660678079,140,123,142
-74.02917587061026,-149.7795943414702,518.0226382164924,110,63,76
-152.66717067614684,87.60085317864313,497.69986573490667,33,26,27
18.428392297309852,70.71632868234371,363.7571883083393,115,69,76
15.07336833175425,70.61227192901896,363.6607535817895,116,73,82
32.86199127349605,70.78492374329649,363.9111542914677,115,70,82
29.06445677580353,70.7713442645788,363.49497576027414,110,68,72
-119.94587189688386,72.34946154322442,395.9919610124505,88,55,56
53.70634543669068,71.83725298890162,369.1207270072412,115,68,78
-157.26520471062932,89.50130653564494,497.3027547806888,70,52,64
61.70571721222841,70.27810998637162,363.96314066011047,140,93,111
-156.4659668628081,84.70609197634332,497.0535360026582,81,50,51
156.38416182842306,105.86346688906518,499.3227783213844,135,88,102
-145.0198613928648,97.51678480506803,496.9301858338417,65,34,39
-147.5312168908796,96.04611843074504,497.9453910980835,21,20,18
-182.8012200310332,94.3468598002399,497.37265441026494,43,32,30
-274.95417845273045,101.50896499188762,555.6246530373336,65,59,81
223.86636179924201,114.06911985814578,560.3257779471193,134,123,148
207.3721757082632,112.00427605028429,561.1368281913942,49,35,43
-181.8249256958534,91.4281003156358,496.6714672202478,103,64,67
210.12792284509186,101.02170213091357,560.1236665513269,134,117,140
-76.3426891575928,70.31626037327251,362.91825593416513,108,63,66
-79.63569922374602,70.17880669107302,362.6420577057513,112,65,73
-71.5979875906753,70.31759387635203,362.9555188139383,110,64,72
-258.7291591344598,97.51978715078336,556.6309050240974,99,93,107
4.47737311730518,70.77711438939953,363.737952765202,118,75,85
-1.15699456950297,70.75238861030508,363.8102054996396,123,76,84
23.473876004182507,74.53863663871596,492.44054915498555,52,92,137
169.70941197002517,73.60665815282542,498.543177459203,67,37,37
-28.438979962235173,-53.48777160107729,521.4290478057457,120,94,71
-56.10941043722795,67.17571559243112,492.5094011454683,74,54,63
-100.0359008766836,61.054869993142056,369.56811644181784,87,46,48
62.506123751251465,64.6390290641604,361.93041769024876,140,90,105
-236.92874936482986,87.84691135462282,559.4732399974657,33,30,36
-66.9132258983943,60.678844864832456,360.45706788396257,111,63,70
-318.6622645148372,83.8870275613472,555.6774028153549,126,122,149
-21.78644275618399,60.807194751586444,360.86069120013883,112,65,74
-183.35953785519789,73.86273735297561,491.9482295453067,37,25,22
-201.22108271737088,137.0783586842781,487.75520311949487,95,65,69
-153.26449527529144,143.82257196366413,483.7765216926897,114,126,166
-286.9914165975837,142.40045574603144,500.8767875545848,47,61,53
-112.22589577650378,117.30975271563877,385.4085911489902,139,94,114
-317.77546631757366,142.31917624050038,542.40422549025,87,77,90
-14.81725969787713,109.35724722020478,365.2514631600888,93,62,78
-97.98940821948683,107.38871602597044,374.8172327034718,112,65,73
-113.05537235850987,106.99412070366108,389.2384895089315,72,47,59
-201.4267965453838,137.88698473305664,370.09268389448323,69,71,74
-8.23719849136592,145.13442395140612,353.21011489715175,53,39,65
-252.79957446051105,142.41838504554298,455.05366231155205,39,60,44
-100.5189724897298,122.87343946230965,367.2154088796354,61,31,34
-237.26581447529745,142.25396894671127,460.37714919526576,35,64,40
-121.4374401975534,123.95961448683128,387.8530038427398,69,38,41
-150.5462356085972,111.55995631341189,496.96834627599725,29,24,24
-51.0009083866969,-149.30281635582847,527.288209778681,36,15,18
248.3101145630406,133.28046738595594,547.859124376478,87,74,91
-98.99221475184652,87.76601485880427,376.8049364316892,104,59,64
317.7941078418512,133.9284862305076,546.5664468282814,15,15,51
-92.71626773214851,-145.65298233123735,533.9068201752453,65,32,39
-53.91252867160748,88.49700861754621,365.96370045901597,131,85,96
19.74861115443797,83.50648393386187,367.23363672416525,136,90,101
-228.0496539657673,110.87203532349723,557.5535255424765,55,52,54
-332.48157162452907,107.3959505745548,554.4224026845594,65,60,82
-255.1817560061858,136.12438253964646,543.8923660575543,93,88,97
171.30477052445175,138.48244631835598,491.1244064776488,130,90,107
69.84143456911502,103.67294450553788,377.9200398622708,167,123,146
-99.39993998140808,95.35028839764736,376.5722996717513,110,65,70
-75.47497487800456,91.55987348444225,365.35678943894095,135,88,104
-324.22915455907236,124.4299491120231,554.5809799756607,71,60,72
-229.7858058586818,126.9865391388976,555.2154180158911,33,41,44
95.57902265473793,102.60836129781727,404.0296626333644,162,120,142
225.67312051117642,135.81868619482265,547.7565101173622,135,122,139
-182.9737427732035,4.74115369415781,525.7431352681168,128,76,87
-246.490426440206,10.73925949809607,561.1963300228064,79,62,78
-154.01089845527193,41.74483360797825,500.9408296131768,136,90,110
-87.51296749067869,7.13484866954884,541.5336618642726,49,28,35
211.22279881292033,51.95461878439293,561.0802619396634,147,137,161
-52.40536687794381,5.64040720066291,528.4792833060516,100,71,93
56.3470103853173,4.10408322335791,541.86601818281,143,85,97
-20.9553259310754,3.98978656159106,514.3564244246127,42,31,29
-310.6792618346943,2.04106558799956,559.4888669761732,93,81,103
91.52006148219652,-1.70772581842233,544.4738344497292,111,82,104
285.93137745444216,-4.1180524898701,564.1966228948845,121,99,118
-196.63713521604095,-0.1473312555805,562.8145511894047,42,31,34
131.64897342750933,19.0636114489918,527.3367934028297,88,37,38
-176.20239647954966,19.32165930126904,524.0752166188673,126,72,85
-207.03717424834437,21.14273865203408,560.0951091504753,87,68,79
36.045048457496,14.876230542366532,527.2803459764225,140,83,97
-196.07684219888176,14.62485031502298,560.9801992529702,86,66,75
-147.1868236552346,11.35809334536831,542.0638842027245,99,70,88
-28.56575790772804,-17.68895385757212,522.0315627043888,177,171,165
-234.7588784805444,-10.44990712706644,561.3500427154023,112,97,102
-12.27499010918824,-15.35028523621072,508.6243475440931,103,99,98
-219.5057625579772,-14.12778307265054,561.8547142987384,120,92,104
32.17984831110729,-18.21882743175341,528.3541805768831,66,39,48
-324.2828835926419,82.80637239625821,556.483361951709,133,125,147
55.82549747890763,70.5715369470209,364.08153992419295,117,71,85
41.67380595098879,-4.6779139744718705,527.6360959914892,149,93,106
225.59237587482278,-7.51162575227685,565.6410111339662,141,121,139
-275.7673886284435,-4.0454560636967205,561.6713261315081,69,56,71
-172.81227572204506,-6.717988424704741,535.3236270840389,122,77,89
23.86280273327503,-10.081588491429,527.6995549615358,69,38,46
-219.1497952307436,-7.86337308854493,561.4144165898115,126,95,101
83.94796699670009,-12.879091182887711,542.4270002804087,80,34,44
31.61770110240971,-12.746144771797411,528.0319260076649,146,94,108
-12.68690047785416,-11.8311488135599,502.9028402798891,176,170,164
41.61238844190524,-13.332064148192979,527.6646077131207,144,90,103
-324.54476738461324,65.14218782247247,557.2965584306972,129,111,125
-323.954961058127,51.662342295675465,558.5084164612474,80,75,105
-330.1677996118626,51.77429985452826,557.1722882806844,85,79,105
-327.3359961752086,54.09165530850218,557.3066491032927,136,124,155
-281.7906982231761,50.90155482087961,557.3482470436288,96,90,119
256.9403313048247,53.747719749234946,562.3516055635174,128,109,126
-82.69743522842022,43.21570957225242,501.55466538437236,140,96,115
-97.9068081360218,43.459489762813405,501.8209817982346,150,99,116
-149.89012475416473,57.766811451597455,500.72108607605435,135,88,101
-296.76000758230407,60.735092696191415,556.9691396259036,105,94,126
217.12384267191655,65.26133746834995,562.2211466784602,119,91,103
-284.54545171346905,46.9124138426951,557.2352567138402,86,76,103
-172.45138150251793,62.423907091336595,499.7989285406943,90,64,67
-227.57907857634575,28.0859700501843,560.4828332069305,55,46,47
-206.684973343335,26.499142858731613,559.856833843339,83,68,75
-159.68231460758287,63.97857508609886,499.4292974629259,96,67,69
-323.9669601834329,69.10603016177484,557.101521224414,99,79,90
-186.1463361924153,22.81650441876016,520.8367756469363,154,100,116
296.9196833653135,40.154912394504514,562.7433018739682,145,121,135
208.6273456204543,40.60410852091731,562.5322673427063,53,48,112
233.0986033604906,73.15481564034046,561.5936665697453,138,124,141
-53.86587733275273,31.38780482072365,510.6683200608747,152,96,113
28.250512357266782,-17.56164520828122,527.9195901603456,135,85,96
236.62523137770785,-144.253418363619,571.2679230749044,152,132,150
242.45781935123665,112.317967519406,558.9023989458093,43,31,45
26.39909800047761,41.51363732725659,502.84595188523673,146,103,122
17.68158949270191,-149.8991201982551,516.8984690136172,108,71,87
-158.7592797848956,128.11844689348956,487.56899199085046,39,28,26
114.31000520375456,-36.26811780940061,537.7332442057284,105,58,62
297.6584248279611,-10.86280909181279,570.1331257741724,101,77,99
70.44319586289068,-202.34726653339658,519.7598738045671,71,55,58
56.889328794044125,-201.79127790207582,519.5370139510665,111,64,74
-176.4851808868902,-172.03040535662012,570.8768620611577,141,120,138
155.752722857664,94.52666186543956,499.40988762565286,127,79,93
38.39756755953973,-61.48476771677232,529.6674520107821,132,80,92
-331.50485299970745,97.10794521661423,555.2768990955395,84,76,89
-49.956988327913834,-150.39790001037449,517.1742197942638,114,67,82
-327.4528205689188,-188.28282968369788,569.4507599075691,76,57,65
-334.0169625795467,-8.87848704765293,560.2884813904692,76,74,87
-273.59944526739594,12.049471466742851,560.6055296707646,58,46,56
-214.1709661386998,-47.64587321620131,563.6921959642345,83,66,82
-155.85211561890634,-100.90815029270107,566.0997850602052,135,111,133
278.6082204738773,-140.21389645675123,571.5510824329192,102,80,110
-291.82067956727707,-114.705222580695,564.8361975128367,116,100,122
-9.20851370448878,-123.66528541584385,533.3448353546584,124,86,106
-166.04394395619767,-99.49154794149207,567.6671892235316,94,70,85
-251.73795503227123,-115.46269984458381,565.6796966644856,119,102,121
-20.75282666494811,-113.11431688293435,531.6769658039453,126,76,85
108.58094017809374,-115.5398560410307,569.3580630488045,92,63,83
195.4167928338616,-123.5969597749947,570.6435710503091,121,105,131
74.67162735273982,-113.25000127376936,542.1546233682976,83,46,54
-248.60713508057702,-102.95696604373039,566.460016660262,133,117,137
-264.45835647313737,-106.23315761107067,565.048144931975,128,106,127
-269.2299884675787,-106.09402821320202,565.6688483875304,125,107,131
159.17861418876316,-126.12146572420255,571.743130151321,132,132,160
279.2620332103164,-130.599767371839,571.3187095177447,97,78,103
-290.2267277379515,-97.7306706057072,564.5866785759641,108,83,109
-222.0343554877756,-136.8618925709832,566.8703626285522,109,82,94
-166.66277488194217,-138.25149865983587,568.7361153063687,130,107,127
136.03118951950216,-153.53211240037373,572.3350029974994,149,125,147
-315.5484220625615,-136.20879347729073,565.1935525282082,136,117,139
-72.43428712944642,-142.466735860695,522.8080313918957,60,27,28
-140.60413182270233,-149.18746528923126,570.0145498108637,80,68,85
-256.52496763363195,-140.90384472907104,566.8291764969181,118,105,123
98.12862131600386,-135.79573982892526,532.5263399707295,120,72,90
-102.3975438570908,-126.91799395468392,540.8111224319376,55,29,32
274.0368016119346,-151.99063161255376,572.9298844659072,131,120,145
-212.02964078924862,-126.29746150040535,568.5575583276274,57,44,60
197.4223358660228,-146.70470534176357,571.7203399751788,98,74,96
-106.16078407413711,-125.014244017199,541.1237700070893,58,29,32
123.68987336359002,-140.75047394382875,570.4437715318413,146,132,152
17.09247912400959,-126.0177739563531,523.0099037162288,58,29,32
238.2464423761406,-150.66131907954045,571.3309734056305,154,131,147
-306.9098794489987,-117.416393322286,565.3244023255312,95,85,109
-84.23616134135965,-123.59296768268513,546.4253851647646,49,28,35
-326.8892905944412,-114.75632096290076,564.4959976746882,86,74,96
211.67303822369848,-152.68277655003456,573.0981891727729,152,133,152
-209.11411580420145,-132.3379264112101,567.6982897554799,120,96,109
-112.90982022126337,-129.31181052154508,533.7535826265364,53,23,24
-100.60127583649599,-130.78161400414177,539.1446094647209,100,53,61
131.411377762164,-148.48048593606626,570.4871314487916,138,115,135
-49.28027411606614,-128.90443433764437,521.7609921453819,140,93,105
