X,Y,Z,R,G,B
-189.33798924577758,-714.1177377945401,122.32894942477225,177,125,71
-143.2616025405165,-736.4974813654671,202.16925116986351,209,160,86
-229.20634463969532,-693.5241376109482,52.23815412475375,182,128,72
-369.3467984378151,-471.4960594746896,-0.6853672394976513,182,133,74
-249.3063234290131,-682.6964747222694,14.874511518578146,192,143,78
-234.54556174887614,-689.8710256576808,40.68378718120215,196,147,84
-104.39340157312401,-754.3825725777428,267.72272555699453,190,139,81
-371.6560642624373,-465.7075427998101,-0.44666985868917664,188,142,77
-226.3739292976897,-693.7732826461526,53.64020301080265,186,130,75
-141.0943665181219,-737.5783907596606,199.7948153096038,159,103,59
-44.422519055502136,-783.2142934706762,372.2220848751148,177,122,68
-210.8882232768459,-700.3013546761916,79.44247325649974,202,153,85
-104.67696629193907,-753.6142199506877,263.6614747036331,182,130,73
-104.91482243899557,-754.4494933763876,260.25463569985925,175,122,67
-222.37425861428318,-694.2911842259725,57.36428146329564,204,156,88
-208.56482644118512,-700.4527350489036,82.40990730623508,209,163,89
-45.64365780808447,-783.0524646986546,363.53399468920054,169,112,66
-212.217351728678,-693.2402518006295,81.71807940811712,201,151,84
-184.07950778753997,-712.8131406843733,123.33456370451677,169,114,67
-223.51632349463262,-697.4951786149734,47.95641686863701,174,121,68
-175.82974058651757,-716.1836034497246,137.05734566566667,194,146,83
-414.60531624213263,-378.98375150233215,-0.24916983477339727,186,141,80
-215.6149769032514,-696.8493714994265,62.90496679852956,203,154,85
-98.20604536858173,-754.4052724260063,264.92057784294525,211,165,90
-96.91932381753873,-753.8775771360508,268.2305449363944,169,115,68
-105.35766708342939,-750.2776013931332,252.11913142320282,176,123,68
-105.35766708342939,-750.2776013931332,252.11913142320282,176,123,68
-144.81415537878658,-728.295950586856,184.07813367642734,195,145,81
-137.21703510996937,-733.9701189164626,194.54005539394342,203,160,90
-108.70124166285348,-748.9181005182944,242.85502362050377,207,160,86
-102.1736083035648,-751.986444378079,254.1228300124264,178,124,70
-407.6597249743527,-384.2940633174955,0.6945309231553267,181,131,74
-175.894486492709,-713.1258822190468,125.60599714081258,194,144,84
-134.7137467411511,-735.7303891991036,191.2324145444145,205,156,86
-94.9350094127056,-750.9791614029261,266.09676433767874,209,162,88
-328.90153480275876,-526.9922168243888,-1.0834142608390493,184,137,77
-110.02162016923452,-745.4242763611287,236.41054998955363,202,156,86
-106.49548748714992,-747.1075777494407,240.08559119892502,154,100,60
-173.85725441712435,-709.3021215142784,126.69153970768107,193,144,82
-156.859537514222,-720.1854466569408,150.33914397442484,199,149,85
-173.50116209828707,-712.8743500309829,120.25809283808113,206,159,87
-89.75971326431153,-754.4348095690293,266.115964246013,206,160,90
-215.53648885714802,-690.9249342963706,48.34624422158757,203,158,87
-207.82937322145312,-696.2498749156831,57.84504612932125,207,159,87
-344.48631812096255,-490.7035929788266,1.4543288251493323,192,151,83
-260.5063971264048,-642.7972099755721,-3.107458734448784,186,137,77
-79.638973894651,-760.1681137074698,274.87699187433395,195,143,81
-82.51398222124448,-756.1342848065236,268.083348008024,173,118,70
-164.34397834148268,-715.6582413618164,124.73640660468507,192,143,80
-167.09255261558297,-711.9405686939907,123.09668317942283,171,117,67
-109.96989409431583,-740.8138627215706,219.92747217861273,207,159,87
-158.78955401034062,-717.2913238887752,132.63096221594057,195,145,83
-143.74802464865365,-723.9208222210777,158.53405128361456,211,167,94
-143.74802464865365,-723.9208222210777,158.53405128361456,211,167,94
-81.85873762316695,-755.4724208314065,265.0882641182334,210,162,88
-162.13861706311434,-717.0065512389948,121.54331974578872,181,126,69
-98.303093665163,-745.9196648757505,235.53312361664544,215,172,91
-139.664733110594,-724.1697844544506,164.287399591471,208,164,91
-83.95343522797978,-753.4589630163033,257.8013857087322,199,151,85
-79.52716946578383,-752.4182377631656,268.3755020618724,163,111,67
-162.061542952242,-715.0479258932766,119.52277331501978,203,158,89
-142.10052674768428,-723.2516132800527,156.52166548825915,179,119,67
-86.78688398002117,-749.8526809655095,253.23617659780615,206,159,88
-24.242832621523632,-781.9983698269111,359.71344426177086,204,154,82
-160.1015941093146,-711.9691007289671,125.76815323904728,193,144,82
-160.1015941093146,-711.9691007289671,125.76815323904728,193,144,82
-169.95068637004934,-708.3831748914337,106.82943111259712,199,150,89
-78.31446123891874,-753.2154355577572,265.5046191033915,210,165,89
-169.50225902362584,-710.1490222358705,101.33625298383836,210,162,90
-104.66332145819794,-741.2011642611589,215.2888609298942,177,123,70
-429.8616663915516,-322.64324404056873,-0.02486260608992552,180,134,76
-105.04468833179243,-740.0617468449364,215.1541242282958,179,125,72
-200.70092708506337,-690.3814873829024,48.98113964633825,202,159,88
-23.853202472038873,-775.9880026541014,357.9577299449571,167,113,62
-139.325470437023,-721.7596724018988,152.44305448780304,209,163,90
-37.31543809414026,-773.377933790372,327.4623540230672,185,129,71
-341.7260178849065,-473.8215079445709,-1.090974392248512,183,138,78
-152.62740869793893,-713.6337703693675,126.81044054493012,199,149,87
-152.62740869793893,-713.6337703693675,126.81044054493012,199,149,87
-106.14064125680645,-737.8830897193554,204.05482894735422,159,105,62
-341.864984586128,-471.6718569366827,0.08180036546562519,183,136,78
-329.543387432104,-493.21761000007257,-0.8955870084202786,193,149,81
-137.07369254768975,-719.5218039708634,151.0960324766131,198,151,84
-75.60720259403439,-752.0436447420709,255.0544032541697,208,160,86
-192.16656673488916,-695.0333001233051,49.22851962313899,167,113,64
-148.92094137737814,-713.4057538458794,126.3926369157974,191,140,82
-153.01000221070575,-712.2284647248878,116.29877058528746,211,163,91
-32.19631499238949,-771.9189095150712,325.32933450455977,195,143,77
-151.7640495719081,-709.8934136456611,120.81779657344347,211,165,92
-191.7824481999459,-689.8538606932677,48.920931894695485,206,162,90
-10.730579679754129,-781.5626283582029,360.40807958637106,208,158,83
-383.9629664029611,-389.30383163282954,0.48428386969578696,183,136,76
-8.08159707460291,-792.5421540830131,349.3894277855695,195,141,76
3.967908407716351,-787.8468488523023,382.1278731433836,202,153,82
-53.54143944789021,-761.5250824902356,278.764971832872,194,145,81
-99.71042963696044,-735.1574272450821,202.63957588703818,217,173,93
-102.73970076401244,-732.5572203630492,194.85658181700234,201,154,88
-186.25919798961291,-691.384695547327,48.13055914835837,204,160,88
-136.48344004483894,-715.4514488850615,135.23451139082667,201,153,87
-212.9720193484635,-677.5051853650355,2.170136300403584,182,132,76
-276.34725982123075,-569.4961545305941,-0.9000836325993191,191,143,79
-445.4333171312223,-277.49714514233324,-0.6671661976702126,171,124,70
-139.34096974691434,-715.5041880560083,124.7956043606178,196,147,84
-65.3707793939902,-749.3885189184273,256.7098612557048,195,146,84
-59.328356154935335,-752.238475365119,264.7329336764432,203,155,85
-379.21134983955545,-387.87647363630964,0.20279435592496498,179,133,75
-92.15221337486324,-736.8314188018496,202.39898706718066,211,165,87
-92.57511880325475,-736.97936015095,198.91479348637276,179,126,71
-58.52888755082384,-743.008691683772,271.71259021958235,190,137,78
-181.0152359868963,-690.713244915469,47.08985808971056,207,160,88
6.239915444285856,-782.8391134248902,371.54510158490905,209,160,84
-234.1917966137068,-629.7982966597499,-0.06831485508044466,189,145,82
-135.14654608601805,-714.6931835493999,119.91953673062781,211,166,93
-205.8892326800376,-675.6413419398381,2.1187271501108853,183,134,76
-52.14146968478772,-753.3301592976657,265.55596692004684,197,152,87
-136.46322918127302,-709.4748885090883,121.4315064553943,210,165,92
-437.73113954538167,-281.009656214119,0.5447484666643732,176,129,73
-173.60063285692,-692.1313668378452,53.24547248602772,170,110,61
-47.765556703684496,-756.3863022186883,268.28212731254484,165,111,66
-51.89039158485349,-751.4532224143207,262.58568715997274,193,144,82
-167.77290698746665,-694.9354186639898,57.32623895303547,204,158,89
4.082823065951061,-778.1447481229588,354.1805248931016,193,141,80
-44.283558694230805,-749.9960898870634,275.33662338110804,195,145,84
-170.12390087605172,-692.9868230807961,47.75225107297305,210,164,90
4.288455754332972,-779.9320565280419,348.60892286090103,181,126,69
4.288455754332972,-779.9320565280419,348.60892286090103,181,126,69
-163.45397169599033,-691.2873732305209,61.61993285034757,211,164,93
-29.766174689787192,-757.5968729256596,292.54908726075047,200,149,86
-42.48417402915544,-755.0968928660309,264.9547839374519,207,161,89
-188.08117447946836,-678.9712734194295,18.87237703068621,200,152,86
-223.49023884754945,-635.5942085516601,-4.536079023721015,190,147,84
-258.87984467271315,-571.3696889525371,0.13980778558629936,188,143,80
-120.46677200605072,-715.4554336330609,124.7770691640905,199,150,87
-120.57585361191252,-715.0310568221428,124.9121296179207,199,150,87
-324.6031254647447,-457.83320545093795,2.3577539310586815,191,147,83
-165.19101529363334,-688.0674208457148,52.85749298618347,154,101,55
-165.33347843097658,-690.1462479341119,49.06813581565464,212,167,93
-38.611575248309066,-756.1242022790317,257.96300647897954,201,153,87
-157.13715484433777,-693.2923729236918,58.02393959153889,208,159,90
-155.46009780793545,-697.9830142297162,51.15868005780828,171,115,63
-156.36034117011718,-694.1513529182694,52.55680304583322,168,109,61
22.053841952610696,-783.1771530055748,359.08125839757133,206,158,84
-228.10124463110418,-609.9008326534157,0.07031360152711841,199,155,85
-27.237078400924133,-758.0189619560824,271.7341934781873,188,134,77
24.398177369651364,-784.3052977694085,357.13874092779827,180,121,66
-235.80967796148587,-595.3234804869765,-3.7979458285617795,199,158,88
-106.38086621065898,-718.5286795626754,129.22090710024156,207,160,90
17.340735178668353,-776.755837681235,341.08030537292734,197,147,81
11.56952356641068,-773.7888438842099,330.5897703990022,202,152,84
-28.333775428202955,-748.5029123034144,269.04728393400296,173,117,67
-245.20763327203832,-571.4573098343758,-1.1063659608192609,194,149,82
-439.9817757336665,-253.6848186496175,-0.049072922309676414,180,134,76
24.413183310812627,-779.8994848110009,348.3943443858443,200,148,83
-344.5379690231309,-405.1126941107819,0.1909488060490503,194,153,83
-147.91579274513347,-691.047013313665,49.110706625814345,208,162,90
-143.6325931353489,-690.9729799299507,57.868931826886154,209,166,92
-419.9461484313325,-282.2387524037772,-0.5946040864710653,182,136,75
-133.40782630707366,-697.5086171652138,69.49279642314576,205,160,91
-133.40782630707366,-697.5086171652138,69.49279642314576,205,160,91
-438.7006577150239,-250.05727810844158,0.12389593590427239,186,143,79
-230.55272392026507,-583.9540492519964,1.1129451138797037,200,162,91
34.37308530715595,-779.3759939963585,357.5230475218828,175,116,65
18.834922334433287,-773.4902070306887,326.5369180233872,196,144,80
39.205034793086156,-781.5555433361978,359.16314897675966,209,159,84
23.481842289599797,-769.0731005763669,337.02247041125145,200,150,84
-237.58950328393388,-567.023613301564,0.7891005810593583,192,146,82
-237.58950328393388,-567.023613301564,0.7891005810593583,192,146,82
32.41345417834435,-776.5984237789212,339.801549547022,201,152,83
-212.1450085332266,-604.7580328215761,-5.755983754240901,191,148,86
-13.203654544109554,-750.2028739629925,260.4012287081992,217,174,92
-94.99274492855315,-707.4084693031889,121.33590483612937,213,170,97
-146.0339098079337,-683.1699798808015,31.61607983252179,200,152,88
-87.70664511930676,-715.1769073974048,124.03284286316531,202,155,90
29.025167805356205,-770.5806431859555,327.30969475972944,202,153,85
29.025167805356205,-770.5806431859555,327.30969475972944,202,153,85
-8.471340861848802,-752.4443625447211,259.7168888894422,188,137,77
-7.352752107477812,-749.9629159835504,265.86662517245566,212,169,93
-137.75899063664977,-689.7239239581195,32.653025236424725,211,167,92
-41.16919841376301,-735.1571530340152,199.54164560947194,178,123,69
-344.971747499245,-381.94855943610145,0.5575787584589023,189,144,83
-36.98408873395729,-736.5066675288922,204.36408674118312,212,168,93
-7.83918905019442,-748.3932072083398,257.92136915869344,209,164,91
-203.52184870817956,-607.8107731617208,-8.221891288714772,193,149,86
-85.5105927455212,-712.1821279721592,119.7239690680237,212,166,94
-226.87317459475497,-563.0741781849199,1.8883753156406442,193,147,82
-345.0536470449807,-378.3596422934616,0.04578053781017388,191,166,117
-107.03174052178989,-698.9519308185422,79.86511740157044,203,154,84
56.058952574522465,-781.1625033670553,356.0148441157413,189,137,80
35.69630707302085,-770.3105056380057,320.6254240649315,196,145,82
44.45158454091532,-773.2330133791515,335.99063183699593,202,155,86
-123.10668659513053,-689.5388362836629,46.55837341801728,211,167,92
-37.3475963802083,-732.8738296922589,192.10553911348563,204,156,90
-133.97761225219185,-680.401657537012,29.88617704907142,207,161,89
-432.71134617479504,-236.02301365371127,0.5986193387803667,181,135,75
61.7910144840815,-785.9663549029453,350.07787784832965,204,157,88
7.460391268387781,-754.3700135146773,260.7448922919632,216,172,94
7.2241191329117385,-750.3296918041635,265.4636204723288,218,176,96
-16.377936480219574,-741.5328179020744,220.01775594475095,213,168,94
-16.62429232229445,-740.9295886194592,219.945528981894,213,170,93
-117.42503024024245,-691.291861201662,46.37162960022857,175,120,70
-400.9447657516279,-282.0621311759805,0.8166512941319297,190,149,83
-342.6283397820673,-371.1386766584809,0.6734070158860277,189,144,83
-26.915614671855195,-734.2085571361567,199.59680606081275,155,100,58
-108.84112580279086,-692.3820410248713,57.98011948233355,206,158,85
-118.16212189961396,-687.6140850428731,42.10180830028537,174,121,69
-115.35130010106536,-689.1775504789491,44.94245277602511,196,149,85
-109.48933895319695,-694.3090814659963,50.50019040895231,199,150,85
-109.48933895319695,-694.3090814659963,50.50019040895231,199,150,85
-27.983768904204396,-732.1458923673491,192.9793911959925,205,158,90
20.444331796978418,-757.9711754172592,269.062053502851,194,145,82
-111.94137389979383,-690.1778709056078,44.28577311535312,188,134,73
90.12018631397373,-789.9580219030844,390.61183943357037,153,99,58
87.92241159130239,-789.3695916504103,385.87558536915424,211,166,90
-53.898342584683434,-720.198232323972,139.62626493541745,211,166,92
19.635693713648692,-756.5657235288248,265.3448561792256,210,168,95
-120.81413804162062,-684.3315840643977,28.074523724538466,207,161,88
-117.05503820196199,-687.666056710621,31.490347437320935,167,113,66
20.847161830821392,-753.797768040859,267.98438438734286,178,126,74
-112.30048682890319,-689.1832876399327,37.53360693478311,189,136,76
-82.54629687008014,-702.855230797988,89.75677823862094,204,155,85
-105.88831406071114,-693.9509689191539,44.89670291696413,211,169,93
-67.52495904170837,-707.8285630224004,118.12889134675018,209,163,90
-71.34684005735895,-707.1268356564452,108.8937327190026,201,152,84
-61.66867982408971,-714.4212014878674,121.47592731875625,194,144,82
-60.86592307973922,-711.4201100561148,125.34583757414043,203,159,91
23.331143053751305,-756.9656581764318,262.8486872233314,201,154,90
30.2085232969944,-758.2377341976992,277.74202720426115,200,153,89
46.10983313552836,-764.8962453289832,305.32790988381703,204,157,88
-117.7092351901712,-683.6092125081082,23.41247262820346,160,108,65
-121.26801330175323,-680.1054234528328,17.915220212985986,209,163,90
53.57820483641095,-767.0963754786235,315.94380426807663,202,154,89
-73.48990971106414,-693.0606762881772,115.95159830796496,203,155,85
-98.61661277974946,-692.8218686557707,52.54352164709087,192,140,77
-129.53123600405272,-675.4121502756975,2.352080893106802,190,142,80
-129.53123600405272,-675.4121502756975,2.352080893106802,190,142,80
81.87624214903738,-784.6655074605362,355.64397999362103,189,135,78
81.87624214903738,-784.6655074605362,355.64397999362103,189,135,78
86.93151877252583,-783.2566668140398,369.377964416459,211,166,90
-382.74659403530677,-294.94362269251263,-0.15034228440021025,187,141,79
15.325028838835095,-748.3480188751372,243.30918889754508,201,153,86
-131.59775800445044,-667.5379096421103,5.6948279808542,189,141,80
26.209075228951292,-752.1701793536959,262.0038710342993,204,157,90
-120.83749424357998,-678.4988710183547,8.88159585122915,203,157,87
81.57098065894988,-780.5929460911856,350.27866636872096,211,164,92
-51.859685817612984,-711.546882570685,125.68918785763086,204,158,93
-15.486313946030634,-725.5695242912788,194.41550552259406,202,157,92
36.898846475039846,-755.9868096858456,275.51994861332315,198,151,87
62.171401601422446,-768.9466706591793,317.1273540927155,207,161,89
89.79037946021546,-782.2375021222576,364.6255873713212,179,126,78
36.128108050504125,-755.9406469882495,270.53137869553393,198,149,87
-120.63510992539278,-677.6530559008804,3.2060935600525227,198,150,86
91.657408797194,-782.9375622790317,365.1309305851956,189,135,78
40.126131888433946,-756.3574905529605,278.0334018723281,184,131,76
-98.60440751369177,-688.4391692721725,39.764838820758854,211,167,93
-48.868779166551064,-710.7637915074138,125.83168239144453,206,160,93
-264.89199328731684,-461.6391970078821,0.4471796799245169,194,151,87
-88.20329169667309,-692.5117976113143,53.15524644925918,195,143,78
-108.80701309544523,-683.0065996618252,13.512992163892278,195,147,85
-401.14609993172826,-258.3524710981265,-0.06068144105248052,191,151,86
-319.01236636364143,-378.8289897618088,1.0296307593235383,197,158,90
93.3405245277109,-782.4415312549371,356.6839876305364,195,146,84
35.45221996813012,-750.1397909116743,263.178934063506,206,160,90
-27.27383212030574,-721.6692510600183,150.8937331510593,210,167,94
57.54425071500128,-764.2553045887867,294.0969420488566,209,163,91
94.49013004860308,-781.6807956647322,356.0813295621773,197,148,85
91.21294175745157,-779.122706477727,351.66330464523844,213,170,94
-86.4041887353608,-688.2413114285945,49.12018288064081,215,171,94
-41.58478375596155,-710.1999167633187,119.86122850192399,213,171,96
50.353981237577216,-756.9977235452702,273.9514829620325,206,160,91
-257.73087374765953,-461.06554662954517,-0.25782301921813655,193,151,85
-75.54711856193998,-693.9276063577527,58.042208641627354,208,160,89
-302.3159785993533,-395.13778414541923,-0.4893908042964483,195,149,82
60.9597547270553,-760.7566679126517,288.77969163650437,211,167,96
32.53331605665622,-747.2314418771413,238.84095050284827,214,170,95
49.148797834699224,-752.1775682888049,265.5344833013286,217,176,96
51.93592988048982,-754.9149636195559,267.5694539449502,182,134,78
-36.713375524138286,-709.9400656263658,117.41222745261419,189,136,76
59.80053503132109,-757.2161668751875,281.27954640631754,211,166,95
-23.95052693006818,-717.1090923467541,135.6453533352704,210,166,95
102.28675457855184,-779.3858736773391,348.43774989511405,209,164,93
5.500040845073158,-728.3217227165654,188.70664588395124,211,166,94
-102.53536005375602,-674.0138995763319,3.6803190989701022,180,132,79
-31.641726419611928,-710.7147802152964,120.30060998501534,220,180,100
105.13906923769974,-778.372652683728,351.6604788799659,207,163,91
-71.87119325172873,-691.3395058313258,47.91119370008076,213,168,92
-96.68711261723558,-677.9734051504893,6.623420317822621,193,148,84
-26.885605466179385,-713.4647638407864,122.33047307134615,172,120,72
82.08000882709192,-764.7476040443792,311.52954480248906,203,156,89
-68.89665735643464,-690.3365388250993,51.47387383540803,193,140,78
91.59999487505573,-769.5853827665283,323.2675233200232,204,157,90
-34.51326294829576,-707.2715347718765,108.37981452038338,188,133,71
56.14616519351634,-749.1885659071675,264.7074646963052,210,166,95
-43.51824722263615,-702.0012191462936,86.25346764826372,209,162,91
101.24498636489739,-773.5626366941385,330.0619472627168,209,164,93
61.279950567394394,-749.7586680824761,268.1994430412741,188,139,84
-361.31828960632043,-294.56862465363497,-0.2561800075705776,196,157,86
-21.760876050403454,-711.1625832943483,120.22464336191658,219,178,97
-31.422684936167485,-705.5980592549186,103.33116200433216,221,180,101
-56.84701917211902,-694.4698716268304,57.05109062128034,209,163,92
-58.557275697629194,-683.6036950450872,72.06978924685924,208,162,91
-45.002437297020776,-697.8171470406066,77.71744854786076,209,163,93
120.13208011991077,-780.2509394206792,356.21935165601485,198,149,83
105.11941128594196,-771.278287614179,329.5292881852643,205,159,89
74.02050553259295,-758.8795962244455,268.4248666246431,196,149,84
74.02050553259295,-758.8795962244455,268.4248666246431,196,149,84
111.9409520488395,-775.4203972797281,335.67102689002854,195,147,86
111.9409520488395,-775.4203972797281,335.67102689002854,195,147,86
-271.4657406102424,-414.57680347049114,1.3306297505632472,201,162,90
-323.48380864267017,-342.1023821014674,-1.0465710354740452,193,151,86
123.06992126680029,-779.9471074391289,353.6296001239986,176,120,67
-206.51332220035414,-508.84212849491087,-5.107029210136886,200,158,88
-206.51332220035414,-508.84212849491087,-5.107029210136886,200,158,88
-37.13647444569048,-700.357044025777,81.1140064401238,197,146,80
20.702687696057694,-728.596040476904,179.8370581976385,196,145,82
20.702687696057694,-728.596040476904,179.8370581976385,196,145,82
72.69753414093685,-753.4935889462586,267.20066137733556,189,138,79
-9.73153268785697,-712.9490262371373,126.80774437542678,210,168,97
125.48627511549029,-779.5065619443889,355.8983270559003,192,141,78
-40.02505977011185,-698.1702709223064,73.51493213832012,190,137,75
-52.63426254469783,-690.90564116498,53.90643061908139,198,149,83
-31.21934245866467,-701.9528574613012,88.04179145701605,220,180,102
-49.23304817234876,-691.8198370175742,58.962980687154186,209,162,88
-12.061865573501024,-711.2586410522467,119.81932797984376,220,180,99
104.49752507223229,-767.7989821668426,317.98252631813835,209,164,91
-9.000394170188656,-712.484240877508,123.29250168758279,179,121,66
72.60642664815754,-752.4791700508641,261.67250963961493,218,177,97
-270.54585146525,-411.8567258077854,-0.7754197040938209,193,149,83
-44.00538749030224,-695.4520658075357,61.16646557865164,209,163,90
-44.00538749030224,-695.4520658075357,61.16646557865164,209,163,90
-34.35660098282867,-699.0149347842639,78.33929780202308,190,137,74
108.64477635727519,-769.7184213241317,316.70277025186033,192,143,82
131.83507539476295,-781.3083889183802,356.1235440860934,194,143,79
-7.39353643810702,-710.3463480482515,120.78449783075169,217,177,99
-45.206525549573826,-692.1083129856676,54.02608252769079,201,154,83
14.703380832302315,-722.5093340879804,152.86862699596824,212,168,95
96.259490451527,-766.5409359026348,281.2085432390852,213,170,96
96.259490451527,-766.5409359026348,281.2085432390852,213,170,96
87.77650211010112,-757.2459228857876,273.7870474999669,214,170,96
-41.46118294890178,-691.955209175206,57.53017825149146,201,152,83
-37.5694433032817,-694.2777105786113,62.82189558922616,202,151,84
-232.3505435930145,-456.9759568783544,0.49856530453214987,197,153,85
-232.3505435930145,-456.9759568783544,0.49856530453214987,197,153,85
-75.53342937468884,-675.7441984067211,-4.863412520451021,196,152,83
-30.954246298902575,-696.9015185173805,69.15464594408644,225,186,101
-66.83312635230021,-672.5445094193519,19.819363355763358,203,158,89
-0.43327843893465,-711.1393615118251,120.88857592288849,219,180,98
141.73893918209274,-779.3476349578658,363.10374843238037,207,160,89
38.32723063158892,-727.7266095455752,188.6416275013715,204,158,93
80.31073137316761,-750.4769972569848,255.27913682149983,190,135,78
0.7293713330010405,-708.8585694744149,124.50479522767623,174,119,68
113.3123185335943,-766.0009329016311,311.4679548472076,188,134,74
133.33700050223217,-779.336139765014,336.25735069993004,210,163,88
76.75379322786466,-747.9248637605112,246.9395905742941,217,175,98
110.89594341554545,-763.571034097754,301.6292004679933,183,130,74
-39.133750875868714,-689.2956189868165,48.096197975552,212,169,95
-62.229472587668766,-678.5593616449014,5.48424379579032,198,150,88
-31.422658842125287,-693.1572538905432,57.45756392999877,226,189,103
88.45680819329124,-751.4740847956924,261.4739452816374,212,167,94
-242.04212466558164,-433.8675366375366,-0.6112307206305445,202,164,93
-312.4652104899969,-336.12336864561246,2.094889144652967,194,153,87
-188.27235950403457,-506.6755726513507,0.23774729031165975,197,154,87
80.62800875919547,-747.1677617071267,245.7689269781607,185,130,74
18.440358811712656,-716.297068763555,139.179508871042,211,167,95
-300.22024367266704,-352.5218354863314,0.5653885888943364,201,161,88
97.72200048880578,-756.7234718497817,269.4880965765837,193,141,81
-322.2686509707057,-321.5505189170796,1.4322888412205543,200,161,91
12.634504460027642,-716.3946312105693,122.13409819611434,182,129,73
-57.434956803757984,-680.8273817813539,3.9578173529885703,186,140,84
56.9700408177803,-734.5918334211347,202.5603989259364,220,179,97
-58.010747831579806,-679.1161309840156,4.636049004306187,186,140,84
153.62234358878538,-782.7837832332496,361.7655355376581,206,159,87
-60.30067646612875,-675.3953804472594,2.8862619926430853,194,151,88
-406.12570840163926,-205.41924454287417,1.0981943596333394,188,144,79
-389.83984798539313,-227.57131199260417,0.7142026931826138,195,154,88
-389.83984798539313,-227.57131199260417,0.7142026931826138,195,154,88
-52.18082377666482,-679.9724113177747,12.786665666575004,201,160,91
111.74109844137911,-759.9302612608333,291.68227366291705,190,138,80
92.424026384674,-750.1846675388606,258.8896125863571,210,167,92
22.072888617065075,-716.4936922426268,137.95116499918112,202,155,90
-29.978616750873385,-690.5083922256039,47.69039026583761,213,170,96
102.09148667798178,-754.0894923330226,273.92711681933906,212,170,95
-372.82088440580765,-249.85784655126156,-0.12543888677265613,194,147,83
154.25172737179906,-780.7848955676595,359.280429298239,190,135,73
15.21260041069121,-711.6471023043168,123.17896311355636,174,122,69
67.06438628485603,-737.6230506577122,209.60441417948726,221,179,100
47.460467915979706,-728.0971793617123,175.7240917099813,210,168,95
59.6370211221288,-732.3215133718406,199.2851048158778,193,143,81
63.2639758912521,-734.8838846819604,203.48793514267098,220,180,99
158.74882997032051,-780.8765186278745,356.4748391631133,196,146,83
37.326144514911675,-721.064444752102,149.39037137537952,211,169,95
35.02207720498973,-719.9276821145925,145.42297964150612,214,171,96
-18.018955219531705,-692.6936241721925,57.52783648834878,220,178,97
-282.07811231339826,-366.0759417748335,-0.3801357723847616,197,153,85
-282.07811231339826,-366.0759417748335,-0.3801357723847616,197,153,85
76.650719952391,-737.7168227273067,217.1645051624972,217,173,94
30.280681226104747,-717.7652576343398,131.42755375121305,205,159,93
-20.23753695342188,-688.1174100541252,54.44129290030736,193,140,77
70.27253165199073,-734.5165480644059,198.7107750701972,190,137,77
86.9606534487302,-742.1364264683837,226.14529693856537,212,169,95
-8.795488332452436,-696.1308727261259,60.94651764312988,213,167,92
-8.795488332452436,-696.1308727261259,60.94651764312988,213,167,92
-29.134067084923885,-686.1674264301558,22.77982080953069,206,161,91
138.28948442315772,-766.7086338270094,309.0659400136605,215,171,94
-44.42433966220827,-676.587708641433,0.2855237259056196,194,147,84
165.89103356661127,-779.6587714590758,355.84081684488154,188,135,75
118.02768331847346,-756.2792766003339,274.4657650846906,213,168,95
117.73465302911507,-755.605056772233,274.7210642322108,213,168,95
168.61143982462056,-781.5893187391414,358.4972146296767,189,134,74
76.57044442216088,-735.5481279514263,203.99192253968607,218,177,99
160.22260384048008,-776.7139375437132,340.7390054076292,200,152,85
52.66222926675846,-722.8115886935661,160.0205257291998,205,159,90
113.9357675996273,-751.3618021772497,265.90691546045235,207,162,96
-13.881798902446548,-689.6513844413498,46.09998396234448,212,170,95
-12.763719549772503,-690.2459157237121,47.701785948124154,212,170,93
-7.130245281912778,-692.8373840038107,57.32739414883292,225,185,100
-320.51515390391467,-306.22686173637686,-0.7147369232947938,193,151,86
-32.77688888347319,-678.2056236575123,13.566581755554665,193,147,84
30.231471817972675,-706.773171546964,124.406646716676,187,134,75
-398.031089441375,-200.9861814392805,-0.28101809562889457,196,156,89
39.78006426125003,-711.0319979818391,136.20901366006632,207,163,95
38.384308701766884,-713.0047951981087,124.53794183961801,197,148,82
159.20867692358428,-771.5998670178728,329.6276143001892,206,158,89
158.56707907363415,-770.2893233002931,329.82248855786236,206,158,89
-0.5125659126389621,-694.1023088023767,57.2185417731576,221,180,99
97.23735539341897,-740.2847991272422,225.1963179932107,214,170,96
124.3008175936207,-752.499792745406,270.61670050977625,187,133,76
59.29541100578132,-722.5457824090657,154.79303649745523,216,175,98
-203.2677579089244,-453.69626789020066,-0.40636635362653806,198,155,89
-203.2677579089244,-453.69626789020066,-0.40636635362653806,198,155,89
38.670642046266124,-710.7691416616972,123.00418167305392,183,130,75
43.538068496244506,-711.8537771636677,133.4151590805173,209,165,97
87.90832807068085,-734.8677544507692,205.4501389687598,207,163,96
200.7780041409202,-789.3104918964057,394.56859252236313,210,161,89
131.7519929953648,-756.2759287042885,273.6667894419646,220,179,99
167.01973357819463,-772.0283037691718,332.6361482603065,205,158,89
167.01973357819463,-772.0283037691718,332.6361482603065,205,158,89
-393.83931595375134,-200.01295966357853,0.16688809505907898,196,158,88
5.100683467528967,-694.2636107200461,51.89394265356054,188,131,72
135.0851161156682,-757.9026506803763,270.57519875114167,178,123,70
186.6102025973443,-777.9831316907146,362.3458727291773,211,164,92
47.22585734175399,-713.5302069375042,119.2775549838722,218,180,103
54.55448047202589,-714.9884057979455,134.98894124498742,198,151,82
9.950888298860633,-693.5174627586946,56.670083737451364,217,173,97
92.80393378968475,-730.47047702651,199.31291449785414,201,156,89
184.92900250513435,-775.767405826497,351.32709085606933,210,165,92
50.03278798309387,-709.9691514597814,123.43467125391055,191,138,76
139.60581002094824,-753.404224918076,274.97308732528967,219,178,99
-375.9778469277229,-217.5977102975985,1.9906135944378036,193,151,86
-349.42014522390156,-252.9853470719384,-0.8644553257576888,200,161,92
-146.2919039221957,-512.7084924119299,1.2764900055132387,206,167,94
13.88669112248192,-691.8345840571213,54.38657454753428,174,114,63
60.53329013754711,-715.0622430789374,131.48097032723953,217,176,99
55.84304979093369,-711.8455241693266,122.84060070480362,188,135,76
-74.12782289716634,-599.5517491706514,-1.3438210299707976,207,168,96
14.075068897699254,-689.873412374318,46.0448812296498,216,175,99
13.730475234424176,-688.9322258933346,46.50837086248745,214,175,100
21.55406853974486,-693.4828994403284,57.80844984881074,220,180,100
196.8917750955585,-777.4355845518518,351.79247376577246,213,169,94
144.4878557225914,-752.7493786516054,261.03363635362194,209,167,95
59.45774790013036,-709.6421287424475,120.61927130297681,214,177,102
59.41621342428863,-709.5625426579679,120.60654900377378,214,177,102
81.99582704861763,-716.6324948466793,165.05944543996037,215,173,97
64.30222358757129,-712.2994618337591,124.93569395075676,189,138,80
64.30222358757129,-712.2994618337591,124.93569395075676,189,138,80
-75.6006378343547,-590.1214102516373,2.279015923118152,208,169,96
-4.472645094394608,-677.2836801444159,5.1686792861838455,192,144,86
11.380101018382703,-683.7342400766095,29.98255695179924,211,168,95
7.282626106921526,-681.6055517889672,20.224557291905768,208,169,96
207.91416242838017,-779.2871650364405,356.000722927419,188,134,76
207.91416242838017,-779.2871650364405,356.000722927419,188,134,76
18.368636302754993,-685.6050463045136,37.00300157935047,189,137,81
24.838820462619196,-689.028187985333,45.9668141115404,223,183,101
27.72655301426866,-687.9918798910207,54.367939693487784,185,132,75
188.31275508569513,-767.3871936753665,319.471623689276,202,151,85
188.31275508569513,-767.3871936753665,319.471623689276,202,151,85
23.59185680967326,-687.7547528111602,39.3684779844605,222,184,102
163.6722765145464,-756.147885896973,273.82232140257184,218,176,97
-398.1797999052263,-175.6594367541773,0.31549333245510525,197,158,88
181.49751540953338,-763.3937650349903,306.1050249148989,215,172,95
34.5259612070999,-692.3349105823024,57.32329139136914,214,174,98
10.77274880441638,-680.7498684696701,16.418327400323307,197,152,90
18.73840881667715,-684.1454723390027,27.781670815721498,180,128,75
14.727261952337585,-682.1361577969046,21.28318562365658,207,162,93
-393.2741404365917,-180.62867934915104,-0.04655202630092958,192,148,84
79.64177986898952,-715.251332072878,123.88665453003068,188,131,74
126.326347473044,-734.8473272045596,209.00924378098526,214,171,98
74.17708830621612,-709.1802818465267,120.77653910594921,216,172,101
123.1426656569634,-734.476997618504,198.7803592354237,198,148,86
160.43345753168757,-751.5608080346237,261.67512138414446,212,169,97
11.631036835740701,-678.6172722292928,10.813293530616392,199,155,88
25.675178693443797,-687.108030582773,29.43791143446191,222,183,102
16.4282444163035,-682.0280145026634,12.723253267906017,200,157,89
72.7300853948527,-705.7928617084319,106.30914554362084,212,168,98
170.40120377561215,-750.1258357709371,276.28631243968823,219,179,100
-242.7374452740492,-360.2939732821451,3.3308337672088157,200,159,88
190.2725764800756,-762.9202152369487,301.89285298077107,200,155,88
165.2293286056473,-752.2453292513785,256.37987875317515,211,165,96
-367.96234080733973,-205.55461189256314,1.291480371771371,197,160,92
229.96546246034222,-786.4232576602765,355.0727139403571,192,139,77
242.9199220234704,-787.8429956461126,387.71783015011704,185,130,73
89.30925786289177,-712.6981561188388,129.51208636970466,216,178,101
24.42773928829004,-680.431345846201,19.817098622880962,218,176,98
129.54734784962085,-733.3599698808613,192.16461260723938,221,183,102
-354.23926361482165,-222.14991188050547,-0.9231610608502763,200,162,89
203.4836211684846,-768.7892926881648,316.68788103031255,215,172,95
-371.70488451020424,-200.22960863501282,-1.1780952131692572,193,169,123
-381.2970547644197,-187.6354863724715,0.4804260045935109,197,157,87
-380.6103562114848,-188.43510959491203,0.4270407631124442,198,160,91
51.0470788418811,-695.1511350126856,53.51113819655359,172,114,64
231.2223826114083,-778.3550322636554,363.55503318637636,209,164,91
19.30629547874537,-677.0280436192801,3.3887944518164943,163,119,70
-335.80134158884925,-242.06810245717455,-0.4660947367130177,196,152,86
88.61850625934332,-710.1804750211437,117.98732823372856,211,168,95
232.7313243480677,-779.9643873275395,360.2367276201019,210,166,92
232.7313243480677,-779.9643873275395,360.2367276201019,210,166,92
99.1320030240687,-714.1140186190125,131.37739237654438,214,169,99
231.92234048289822,-781.6265013131813,346.26211908419316,210,164,93
-306.14545270358064,-275.3719137886643,0.3307487131035032,202,180,129
23.428469512846675,-675.7310203832349,5.291964578876048,207,167,97
242.66579577428382,-782.3240831986759,369.33241389441645,191,140,75
96.36340098823979,-710.9141166388366,123.71427303638316,195,146,80
52.014846356261586,-690.55461623632,46.65599256681563,222,183,104
-387.3052864562949,-174.43869818886063,-0.6902121222887843,199,158,90
203.87177352072138,-763.5679408304553,298.0105706568419,214,174,97
241.29104306078722,-781.0985409687671,355.9991903081534,191,140,77
236.96836744006072,-777.0067561365697,353.3566699800252,175,122,69
193.2012900570408,-759.0299425815897,269.60581261585145,195,148,85
97.10508741138273,-709.4012212241319,114.18208404621689,165,108,63
64.88800841587857,-694.1324434907183,57.50556247467847,225,188,105
149.51863386431717,-735.0823015448075,197.74522253085908,193,145,82
107.98705272624454,-712.9243205293687,131.36550895841057,211,169,96
234.71743021506808,-775.3263935060652,339.4971778018695,207,161,87
234.71743021506808,-775.3263935060652,339.4971778018695,207,161,87
93.04553247090877,-705.7813129731425,101.30828433666161,212,168,99
97.74903813128316,-708.3283107576286,107.38054809501236,170,113,65
96.88314540585458,-706.6529476202629,107.4629711683159,162,107,60
105.46216633280659,-712.4915579725748,116.3322470164882,220,182,104
61.937596614179284,-688.6646891091948,49.12792687051777,220,182,105
150.22991630612847,-731.8456138018674,194.25569338770129,220,183,104
240.08309719796637,-776.3271603688947,340.54011774218327,214,171,94
72.66016823988386,-695.6528959385466,56.923586223453015,225,186,105
-367.20236153565435,-191.0570378250309,1.0625111408283772,201,161,91
102.30457986569218,-708.2690732746125,109.58718596978918,219,182,107
69.36924366245469,-692.6931619637592,52.79988235025078,182,131,76
199.3769760778871,-753.3858809384001,275.65259359649144,218,177,99
101.55665360448745,-706.6342766611995,110.19795594386082,218,179,105
-360.59677646164357,-198.13023871910306,-0.29583292865828525,191,149,86
97.06901367839689,-703.9256305814101,95.9695090313252,173,117,66
97.06901367839689,-703.9256305814101,95.9695090313252,173,117,66
250.78293599347916,-779.3792512153766,350.58155139339544,211,169,95
155.3261595873028,-730.5482925561028,193.73657370734423,225,188,106
201.08199263337883,-756.0454153889124,260.5644776485383,213,169,96
198.819080970281,-751.2597347758981,265.11971896976786,208,165,93
91.2758685932564,-699.583303182306,83.86997312217545,214,173,98
202.7585885941109,-753.3333258924683,270.67864537443074,190,138,77
115.20701822029145,-710.3273182199357,124.95447705746895,190,139,77
115.20701822029145,-710.3273182199357,124.95447705746895,190,139,77
90.64138728979148,-698.2517170728725,84.23537146612964,214,173,98
-263.2490041333815,-310.75289530127935,-0.07397077705874722,200,177,129
-263.2490041333815,-310.75289530127935,-0.07397077705874722,200,177,129
169.36117830091803,-735.234057365863,211.70809424462092,217,176,98
101.73181262820697,-703.4025146100962,96.0956738481404,216,179,101
-375.0393808896266,-176.05133223584258,0.20765302933068597,192,148,82
205.51752735872248,-753.703428707041,264.1904290824103,210,167,95
211.97382846174656,-756.3367998269238,275.900720654281,217,175,96
78.91331931390559,-690.8484497512793,53.95360535799074,185,132,77
78.91331931390559,-690.8484497512793,53.95360535799074,185,132,77
166.6150832653006,-734.5437426930642,197.561802692904,198,153,88
162.87129080534532,-731.524867204028,194.1466519243544,221,184,104
97.43233101617372,-699.9868640690099,82.87403110640545,181,128,73
97.43233101617372,-699.9868640690099,82.87403110640545,181,128,73
-341.4351796101763,-213.93114526988467,2.639650125820822,201,163,94
120.30148666448372,-710.7898097955425,117.2558881334121,217,179,102
126.44749425410646,-712.4392979188456,130.1588428457706,216,174,100
262.9171245631479,-780.0125358483533,354.46202362412623,189,137,75
204.57407512056238,-751.050541158025,258.20714194038794,215,169,97
208.09475773026662,-748.7071207419631,269.21676589109364,204,155,86
212.3722145933229,-752.6583736273327,267.95764488556625,205,157,88
205.81585576451926,-750.4476876770314,253.38998166749673,215,173,98
96.48497163090741,-695.6624757593066,73.41478879503504,182,131,75
93.16400464725686,-694.5123288095108,66.46723590414899,223,184,103
209.6359271651828,-750.8726756762834,258.6494086107731,191,139,78
73.49909855464878,-682.7519603467827,35.576548623421616,218,178,102
-395.5089540049661,-146.47424410058167,0.6969141994124755,195,155,88
103.84712141132803,-699.3337701773498,80.08344363126756,217,179,105
204.20647067189708,-746.232175195616,249.6142101580295,214,172,97
91.81873199158741,-692.4612170079752,58.79926323810804,220,182,102
126.92735773037134,-709.0737666799085,116.71411869002384,221,182,103
-395.62301199457227,-145.89701175413677,-1.0925117601635463,190,147,84
97.6031380175219,-694.810931842519,64.81470263546129,188,132,75
97.6031380175219,-694.810931842519,64.81470263546129,188,132,75
224.40719074963238,-756.389540299887,274.849141646442,215,172,96
215.40366231316852,-751.1500001213376,261.7011045208517,217,178,100
67.73906036780295,-679.8176697656597,13.505982400861797,210,169,96
276.1952795683709,-779.9491134555196,361.63377554129625,209,161,91
-350.3034024857842,-195.96795251528246,-0.8322412964117518,195,152,86
-337.2061403023128,-210.19440730772976,-1.0822854113323217,196,159,89
205.4595803453006,-744.5410175040699,234.09491363320888,212,169,97
291.99054527696734,-786.6185460613824,372.92962224334025,204,156,90
291.99054527696734,-786.6185460613824,372.92962224334025,204,156,90
187.94604038739243,-733.1170668709926,203.30111965582745,214,172,99
94.71345884678155,-686.2228534770618,50.09521314359975,222,186,105
143.96900343372369,-712.7549248548439,124.31659857718438,198,147,84
143.96900343372369,-712.7549248548439,124.31659857718438,198,147,84
104.94161039956634,-693.7272201746832,59.287492988284214,226,189,107
214.47207482639345,-746.0002024177928,243.26446548840397,219,181,103
281.9515772862989,-778.7434918052745,355.23684877393373,190,137,76
186.73962549215258,-734.3191626705161,191.06375860547,216,177,100
146.80518550635486,-713.0583122513133,129.02310561320942,217,173,102
295.8088890534494,-783.2246438219281,375.7697557366474,206,160,91
93.92457215687102,-685.2358147320572,38.52578599284999,213,173,102
139.80806154922755,-706.1370150237747,118.0156143385866,218,181,101
216.4397669487568,-746.0629426947539,235.81444495440604,218,178,102
191.49768653450388,-732.6479447082228,197.46651995700466,204,157,93
189.23269692916392,-729.7604891618802,196.88241279491453,204,157,94
-377.04943384667837,-157.8681293371044,0.020831352451722296,199,162,93
153.6429677804761,-715.1652109445888,128.75571869322116,216,178,102
-253.9330933111948,-298.39105335494037,-0.10055210527016811,200,178,130
157.14476810727746,-714.7970212911956,133.42280449255645,221,181,101
108.92682517691674,-690.5946962658409,53.97420152442183,192,141,81
108.92682517691674,-690.5946962658409,53.97420152442183,192,141,81
185.8240638573235,-727.1710527991831,180.83258905322825,220,181,101
-373.3123382766936,-159.93581649860076,0.22252740763610745,191,148,84
22.112186631523883,-613.487712779387,-4.1713969942576625,206,165,94
232.1082627638134,-748.962223313647,257.8974430215775,210,164,96
206.0320000137295,-738.2595550586041,208.8377906925154,215,173,98
199.55065097410346,-731.90603170635,205.7656403043722,214,172,98
190.71951293604053,-729.4886576478143,184.99437355840013,193,143,81
190.71951293604053,-729.4886576478143,184.99437355840013,193,143,81
310.40454358144416,-787.9103334712439,380.7977230000288,209,163,92
309.5506082560935,-786.5326184805563,380.82983428278226,209,163,92
248.18051612517223,-757.2227583171536,277.8300755665553,215,176,97
152.90718998732308,-709.6167457284989,118.81446835272936,220,181,100
-374.00787911764246,-156.769185011895,-0.3361535635669384,202,164,94
115.10438933221764,-690.1416746993501,55.83429980051764,195,143,81
159.02298052245288,-713.2357435817316,121.35550006621273,193,143,82
214.74787387120966,-737.7603610054628,218.46289346238348,221,181,103
-368.18912997949406,-161.90594608305574,0.14066916235998406,203,168,94
187.34113082343777,-727.2545564584949,163.12506570126513,224,186,105
236.88537811169795,-750.5359012452021,246.6342307968219,217,176,99
137.60199316207382,-700.569395218703,86.37370989304773,208,164,95
137.60199316207382,-700.569395218703,86.37370989304773,208,164,95
201.20999143811508,-732.0263539006257,189.5978231919887,218,179,102
201.20999143811508,-732.0263539006257,189.5978231919887,218,179,102
195.69589395048268,-728.5505405689494,182.25576538698624,217,181,104
116.3447894633589,-689.4148656915323,47.70975793441548,223,185,106
206.3351473919185,-732.3295762359185,193.05624428532082,215,179,102
231.94827724370685,-743.2751467067787,239.23000170882955,220,180,100
186.48352047435208,-722.3693601853724,158.86550312473557,224,186,105
166.4351783273808,-713.3611739706096,123.7780186159327,192,143,80
166.4351783273808,-713.3611739706096,123.7780186159327,192,143,80
162.91554483202685,-710.832094489504,119.21954500925497,211,172,102
124.44777699826341,-692.3308570807826,54.88311749795628,186,128,71
217.45565415789304,-734.1201415493026,216.08421069568493,220,181,102
301.6015869996301,-776.2976093447396,350.95028546156993,215,174,96
-77.0175880360544,-485.8411404986679,-0.2693331249707285,205,164,95
-370.49924123256216,-155.69149483099565,0.031963601124090246,202,163,93
-321.21837523059173,-210.9324540013824,0.16599165528748472,200,178,129
126.61992292030635,-694.1299589877281,52.57612583583099,188,132,75
126.61992292030635,-694.1299589877281,52.57612583583099,188,132,75
124.82203016178175,-690.4690368304746,54.04488856464192,188,132,75
124.82203016178175,-690.4690368304746,54.04488856464192,188,132,75
215.23721314459755,-734.4070611635711,203.0743559198316,224,187,105
-82.31063404030687,-478.05339672375493,-0.02930165506143112,209,173,101
167.56767092686556,-711.245673508023,121.86870023940588,187,136,82
261.08065206489243,-756.3261118518914,274.0058081592292,217,175,97
-396.185819351879,-125.12197877053919,0.24118217432157962,197,158,89
258.5246052902481,-753.8006148800332,269.7565054484154,196,147,81
315.7700277135534,-780.5268517460953,366.70490541815946,205,159,91
190.5712946256832,-720.5956868885356,155.16678549355532,188,135,80
190.5712946256832,-720.5956868885356,155.16678549355532,188,135,80
251.4826481719366,-749.7192647946833,256.530121178033,216,176,100
47.96798648777272,-619.6741067520359,-0.03265166401558872,210,174,102
126.98997533522731,-689.2906545906154,48.70703188767425,224,187,110
-179.6397633752095,-365.83544874330363,-0.7764239933337649,206,171,99
126.74781715449848,-688.8183256545494,48.03260940173959,224,187,110
252.7761215362225,-750.3851409664521,254.41148411726002,217,173,97
-367.96696409309095,-154.81751509765667,0.11051214117506447,202,166,93
130.70032688357958,-686.9473913121246,59.52367080744909,214,173,100
262.22815601740143,-749.8737107901684,278.12433010990355,218,178,99
201.29406118951442,-722.9250512910335,167.11470687376243,214,170,97
119.6349921361923,-684.5143776005937,28.728038373183836,205,159,92
-188.87403283668397,-351.9391760507555,0.2124987758875534,203,163,93
324.5471820710293,-787.3483413539725,355.44787843873917,203,152,85
173.96972916200434,-709.6298322868126,119.03661633714069,215,177,101
186.2613272830053,-716.5429245541841,136.086275826126,217,178,101
181.67129445377464,-711.8410471249866,131.70209478354815,217,178,101
319.1529173893298,-778.7880976287217,356.04152566630637,203,153,85
271.5375282601486,-754.2714391739805,274.37070405489766,219,179,99
133.11427822115388,-688.0773042194878,42.74462746604715,208,166,94
-366.50573320355244,-152.01015698235457,-0.1436885828880463,196,153,84
108.107572822534,-675.5230539130923,2.3066062939710434,198,155,92
317.42305792553964,-775.9380278655638,348.0234845884636,219,178,100
234.53713933960745,-736.3935537787432,201.90217856906798,223,185,103
178.90257575767959,-707.290910046889,114.95713121997227,212,167,98
325.111755641418,-775.5043853861928,359.60897269128816,199,147,85
282.34075082510856,-758.7635203780656,276.4532606313962,220,179,100
195.91648337323312,-715.1647664798459,138.28429589121447,225,182,105
208.06469146615598,-719.8940501057423,159.11056829794882,218,181,102
189.13358835800034,-712.9281132951855,121.71507267106986,191,139,82
-254.47712945111851,-270.6096794993238,0.30243716010855337,207,173,100
349.56007756866325,-792.2020907178548,375.2850476284666,211,165,97
235.91613887800702,-732.8200157770314,198.4849711066798,195,143,81
235.91613887800702,-732.8200157770314,198.4849711066798,195,143,81
317.907612203445,-771.8668838218755,334.26244042462577,220,179,97
190.5439553888997,-710.7785284314754,119.26557567693999,216,176,101
195.39513925363246,-712.1629878040399,129.0158507985565,223,187,107
195.39513925363246,-712.1629878040399,129.0158507985565,223,187,107
318.13301930519873,-771.4398314154555,329.26290931585504,218,175,96
